# .PCD v0.7 - Point Cloud Data file format
VERSION 0.7
FIELDS x y z
SIZE 4 4 4
TYPE F F F
COUNT 1 1 1
WIDTH 162
HEIGHT 1
VIEWPOINT 0 0 0 1 0 0 0
POINTS 162
DATA ascii
0.033163168 -0.081194766 -0.073849723
0.16259974 -0.031835753 -0.098096371
-0.013544172 -0.084760286 -0.075183876
0.39606115 -0.078783169 -0.063529938
0.36541802 -0.079767972 -0.094478562
0.40860483 -0.061054327 -0.05963115
-0.11560851 -1.5795687e-06 -0.092176184
-0.013807718 0.085428268 -0.07524386
0.16146332 0.030530054 -0.098071538
0.43330431 -0.068196349 -0.0042885994
-0.12685111 -0.11601528 -0.044478502
0.029140117 -0.11364543 -0.049791418
-0.046957009 -0.1198087 -0.028148519
-0.41750994 -7.6791503e-06 -0.062627777
-0.4121055 -0.063065596 -0.06812194
-0.43004286 -0.038959321 -0.011877744
-0.12680638 0.11449064 -0.048096839
-0.23814896 0.1080988 -0.056804478
-0.21703783 0.11939693 -0.030250119
0.39629754 0.078804329 -0.063571669
0.33843046 0.09031561 -0.081772245
0.39348766 0.092269704 -0.036040265
0.39344198 -0.092318073 -0.036075559
-0.21706837 -0.11953977 -0.029587988
-0.43004602 0.03895627 -0.011867426
-0.046945252 0.12003645 -0.026593829
0.43344891 0.067788102 -0.0043316302
0.1927875 -0.11527129 0.060996599
0.24494201 -0.10752456 0.068348385
0.15994203 -0.10656977 0.080559216
-0.38039514 -0.091521025 0.06631548
-0.24033758 -0.11088666 0.071891427
-0.29754761 -0.069549181 0.08692985
-0.37979195 0.092615269 0.064527832
-0.41651753 0.06638521 0.072292902
-0.29728103 0.069874145 0.086686864
0.19282317 0.11513668 0.061571989
0.0368337 0.11300812 0.069382809
0.1599147 0.10756394 0.079303749
0.44894239 -5.4138131e-05 0.05958521
0.44712418 0.061394382 0.062893189
0.42850488 -3.376594e-05 0.070271477
0.33372742 -0.00015269031 0.088964187
0.23069361 0.065409712 0.090381891
0.18510669 -8.2288228e-05 0.090353407
0.37416422 0.058799766 0.083975106
0.41989022 0.085046113 0.064591736
0.24494195 0.10752471 0.068348385
0.24321049 0.093767442 0.086451262
0.12787616 0.095485777 0.088713691
-0.046104282 0.090346448 0.090217277
0.080012821 0.063035443 0.090408087
0.0038934723 0.10579886 0.081579722
-0.11897536 0.12810536 0.062717222
-0.24023846 0.11128287 0.070992135
-0.16611972 0.10185011 0.085117452
-0.21300972 0.075164318 0.09049163
-0.25364289 -2.828536e-08 0.10231222
-0.090052351 0.038959965 0.090407357
-0.3318474 0.038707107 0.088336028
-0.43134615 -0.030267486 0.066563495
-0.41635889 -0.066190585 0.072285041
-0.33223027 -0.038282562 0.088286586
-0.21307966 -0.075242266 0.090494879
-0.046108596 -0.090316884 0.090207495
-0.090053543 -0.038962435 0.090406477
-0.16609985 -0.10078253 0.085845903
-0.11904446 -0.12819265 0.062608846
0.036682419 -0.11370239 0.066930756
0.0039559416 -0.10619758 0.081054941
0.12830339 -0.094909392 0.088898972
0.23222309 -0.063073508 0.090397678
0.080012836 -0.063035391 0.090408087
0.24364328 -0.094168603 0.085764132
0.41928807 -0.08519277 0.064754933
0.44714466 -0.060487092 0.063042231
0.37493852 -0.059180345 0.083787493
0.45114434 0.059835956 0.030851172
0.44896546 0.069424793 0.048502132
0.45219898 0.038968045 0.041131105
0.42856821 0.089312941 0.024202723
0.37453479 0.093767792 0.0014821355
0.24206012 0.118187 0.030463012
0.39936861 0.093726501 0.05145175
0.03288218 0.12223108 -0.001419276
-0.057277881 0.12762636 0.049651179
0.11300248 0.12197864 0.02663742
-0.13702619 0.12221719 6.9903646e-05
-0.24388522 0.11793604 -0.001827604
-0.36004609 0.096281841 0.045306388
-0.19175798 0.12587585 0.050807506
-0.43847376 0.069216371 0.01689671
-0.43878978 0.038842749 0.045490451
-0.43259656 0.090177156 0.04290935
-0.43946216 1.2991271e-05 0.022202173
-0.43879136 -0.068670817 0.018113552
-0.43278328 -0.090022475 0.0421069
-0.43883005 -0.038831349 0.045434374
-0.24389082 -0.11791807 -0.0016592863
-0.19142091 -0.12601562 0.050585266
-0.36005691 -0.096250765 0.045302689
-0.13700876 -0.12219692 0.00026138432
0.032895878 -0.12222406 -0.00067479035
0.11297232 -0.12197596 0.026822885
-0.057343431 -0.12765545 0.049800895
0.37454093 -0.093767732 0.0013299678
0.39927524 -0.093714222 0.050940469
0.24206021 -0.11818685 0.03046301
0.42869735 -0.089221388 0.024234403
0.45082521 -0.062455006 0.030207284
0.45217556 -0.038944691 0.041583393
0.44733167 -0.072551087 0.048602536
0.2031152 0.12217622 0.00080830167
0.24181145 0.11550686 -0.034092847
0.18512207 0.11268783 -0.051500537
0.029046532 0.11355089 -0.05001894
0.10909346 0.11883057 -0.033514008
-0.4105885 0.094757907 -2.0171377e-05
-0.35876137 0.095919952 -0.051519684
-0.35940573 0.089216433 -0.068389028
-0.41163829 0.063003227 -0.068192914
-0.41631839 0.089021854 -0.046265289
-0.41065887 -0.094753608 1.8104891e-05
-0.41616994 -0.089137651 -0.046243303
-0.35837111 -0.088345081 -0.069411077
-0.23807421 -0.1082594 -0.056541812
-0.35870385 -0.095883049 -0.051878773
0.20311466 -0.12222435 0.0015056389
0.10908397 -0.11913741 -0.031732805
0.1850813 -0.11332057 -0.050265212
0.33929724 -0.090910889 -0.080170467
0.24181405 -0.11577202 -0.033246707
0.45172346 -9.6197873e-06 0.034743525
0.43916181 -0.055229232 0.0028912118
0.40052986 -1.3190606e-05 -0.076009966
0.40863314 0.060504206 -0.059642185
0.43911096 0.055017754 0.0029513468
0.27860621 0.04889366 -0.10996697
0.23185793 0.086544149 -0.08030732
0.36613989 0.083651371 -0.094268382
0.1300787 0.087339185 -0.083491459
-0.060401566 0.090781666 -0.074719772
-0.094391666 0.1013739 -0.065571122
0.062095892 0.095244661 -0.071736321
-0.21202767 0.090063758 -0.073772736
-0.1573627 0.055478171 -0.086778462
-0.28331012 0.012816483 -0.096661448
-0.34801739 -0.012139613 -0.092738412
-0.31690669 0.048683316 -0.095118925
-0.31677228 -0.048346333 -0.09531904
-0.15764609 -0.055500284 -0.086767294
-0.060494319 -0.090811066 -0.074703619
-0.094759695 -0.098539233 -0.068508737
-0.2119506 -0.089417413 -0.074223951
0.38506764 0.036848109 -0.10094643
0.38538399 -0.036975078 -0.10086885
0.27886927 -0.049225971 -0.10987946
0.27875796 0.0091132419 -0.11084757
0.062103327 -0.095436446 -0.071568482
0.14813113 -0.071539462 -0.091481976
0.23203212 -0.085302703 -0.081360273
-0.0059824809 -1.1030449e-05 0.10296682
