# .PCD v0.7 - Point Cloud Data file format
VERSION 0.7
FIELDS x y z
SIZE 4 4 4
TYPE F F F
COUNT 1 1 1
WIDTH 162
HEIGHT 1
VIEWPOINT 0 0 0 1 0 0 0
POINTS 162
DATA ascii
0.020949811 0.015322773 -0.353787
0.025371164 -0.02114824 -0.35387802
0.013262153 -0.02488381 -0.35179049
0.055471465 -0.046364788 -0.30762964
0.056163341 -0.04342008 -0.33245593
0.057677209 -0.028011229 -0.3109363
0.0093899369 0.015230381 -0.35029507
0.014434531 0.025675058 -0.35235894
0.026350319 0.016870102 -0.35383147
0.040475965 -0.044981603 -0.20840655
-0.01983732 -0.055057559 -0.27992254
0.00021824241 -0.058981098 -0.29565912
-0.012176387 -0.060248844 -0.2114049
-0.04725074 0.00021303854 -0.25533932
-0.042141989 -0.020964455 -0.26637042
-0.049911827 -0.0049351775 -0.20770501
-0.01963532 0.037968729 -0.28331447
-0.027694255 0.033345226 -0.28521258
-0.026720785 0.035376847 -0.21284136
0.055054203 0.031055473 -0.30710405
0.051732644 0.035096198 -0.30805832
0.037659086 0.027995348 -0.2267075
0.039551683 -0.048683811 -0.20981728
-0.03025683 -0.052929666 -0.21002701
-0.051213011 0.0094399676 -0.20783392
-0.011101142 0.04032981 -0.21204349
0.039936066 0.023625642 -0.22849858
0.0290257 -0.061547514 -0.0055766907
0.050524786 -0.047833383 0.0082030669
0.025427867 -0.056390997 0.048494894
-0.048981231 -0.044786349 -0.0048837513
-0.046329036 -0.049234927 0.0070314091
-0.058192685 -0.02445879 0.046343818
-0.052242126 0.030597406 -0.0023823753
-0.054500204 0.020285103 0.01212126
-0.057823826 0.020535935 0.046227761
0.033604734 0.082207836 -0.0037406655
0.0010945178 0.083776623 0.0082158232
0.01962452 0.073198728 0.035206072
0.06015569 -0.00010638736 -0.0040656552
0.060120158 0.028020436 0.0081924461
0.05909919 3.0946365e-05 0.033461835
0.044923875 0.0005047826 0.071645752
0.032826997 0.015445634 0.077870861
0.025522206 0.0042248662 0.080147766
0.05738622 0.022894999 0.035847239
0.059034958 0.032482486 0.020489177
0.040066645 0.072990596 0.003835842
0.040290631 0.027341645 0.060818639
0.015932087 0.021482227 0.080557123
-0.012895256 0.020419333 0.081770852
0.0083310902 0.017158585 0.083817303
-0.0052366965 0.072494686 0.040041678
-0.032121599 0.081076771 0.015276256
-0.040305745 0.072641239 0.0036352072
-0.034382164 0.029143225 0.061736152
-0.035794944 0.015152405 0.0760011
-0.041523162 0.004144391 0.073893465
-0.019607969 0.014902302 0.082155854
-0.059223659 0.014927946 0.048249241
-0.060593344 0.00010284052 0.038432643
-0.055501655 -0.016570728 -0.00054676458
-0.059229575 -0.017673079 0.048224252
-0.038355201 -0.019383343 0.072041705
-0.01339227 -0.03006999 0.077321038
-0.017970018 -0.010800149 0.080755368
-0.038735479 -0.043822091 0.056246225
-0.028726345 -0.059625421 0.017424697
0.00088120042 -0.065930396 0.0057463469
-0.0059843715 -0.055234101 0.059036504
0.016561067 -0.03578914 0.074473068
0.03313344 -0.019012962 0.074952297
0.00584222 -0.018683827 0.081279896
0.045715865 -0.037246309 0.05571932
0.059242539 -0.037882853 0.020525888
0.060116768 -0.028581062 0.0080597401
0.049315885 -0.022657117 0.060184781
0.041681714 0.0099350289 -0.13825397
0.05928468 0.028619595 -0.037677351
0.057913784 0.0062385327 -0.050807092
0.03605973 0.025035787 -0.14066353
0.029711083 0.034696598 -0.14341302
0.026503054 0.07486283 -0.029589038
0.056760624 0.03277912 -0.038121685
-0.00065128505 0.043216243 -0.14181454
-0.012018936 0.080004103 -0.034487613
0.011934684 0.077590801 -0.036493696
-0.020288505 0.039328225 -0.14251165
-0.029044233 0.034424812 -0.14280233
-0.046837259 0.032771308 -0.051037747
-0.029398259 0.074906118 -0.026997469
-0.055034429 0.010831509 -0.13848253
-0.058322255 0.0052061882 -0.049667407
-0.054383438 0.019396953 -0.050967589
-0.055339627 0.0075017032 -0.13829133
-0.052310459 -0.016348539 -0.13811663
-0.049419425 -0.040162709 -0.073153637
-0.058360953 -0.0096211806 -0.049398188
-0.039449144 -0.050377585 -0.13948582
-0.039503515 -0.056728985 -0.059594151
-0.047559626 -0.046141673 -0.070155084
-0.027262777 -0.059073955 -0.14138253
0.00083011389 -0.064599514 -0.14144471
0.01502143 -0.066317007 -0.072191522
-0.013224054 -0.06688486 -0.060281083
0.041890606 -0.051929399 -0.14086577
0.04799328 -0.049373019 -0.05897925
0.040898576 -0.055944033 -0.072237968
0.044227071 -0.047293365 -0.13928923
0.044507559 -0.044309709 -0.13784645
0.058438934 -0.0068201218 -0.050585773
0.059593104 -0.034597263 -0.03987655
0.022068042 0.039205559 -0.14272475
0.0308154 0.034920398 -0.22414353
0.036499172 0.044581871 -0.3106463
0.0033370107 0.044039194 -0.29593179
0.010477237 0.040285122 -0.2244838
-0.05301173 0.014877157 -0.13997526
-0.046689786 0.016320108 -0.22251791
-0.029558763 0.029859124 -0.28616244
-0.046141073 0.0049491986 -0.2560344
-0.049628563 0.012452871 -0.22088853
-0.046878379 -0.036420472 -0.13833992
-0.045593493 -0.022067297 -0.22034013
-0.033893369 -0.037357386 -0.28299654
-0.02917701 -0.04562309 -0.28684688
-0.038391896 -0.041227967 -0.22095686
0.028862841 -0.059636947 -0.14202079
0.016719393 -0.060085602 -0.22482736
0.036947489 -0.058798775 -0.31048256
0.05235596 -0.051741444 -0.3079206
0.035389915 -0.053024136 -0.22374389
0.04298383 -0.001258714 -0.13786304
0.040507048 -0.020846456 -0.23013756
0.058707088 0.014858254 -0.31600851
0.05752106 0.026709301 -0.3114523
0.040571615 0.020401295 -0.23082586
0.039314196 0.02808529 -0.35029829
0.042980954 0.035257831 -0.34272087
0.055675864 0.031027336 -0.33116096
0.023403794 0.029709116 -0.35322946
0.0081492215 0.03037199 -0.34847888
-0.004307434 0.034493595 -0.32921809
0.016514078 0.042779531 -0.33787626
-0.0096700341 0.030481745 -0.32589114
0.0028166473 0.025252298 -0.34557039
-0.0021509826 0.015297656 -0.3407535
-0.031602159 0.00096553186 -0.28965467
-0.017788902 0.025094483 -0.31397524
-0.017747387 -0.026985541 -0.31395483
0.0026525706 -0.024995705 -0.34558833
0.0085332692 -0.044873428 -0.34891626
-0.0049495548 -0.050705459 -0.32979441
-0.0097966939 -0.044900242 -0.32640594
0.055821419 0.017235635 -0.33440018
0.054253086 -0.020752834 -0.33752453
0.038759023 -0.033309817 -0.35093635
0.039953887 0.014540173 -0.3500607
0.01293318 -0.053507801 -0.34521025
0.022719204 -0.043311551 -0.35336715
0.043391302 -0.051007599 -0.34426239
0.00090640783 0.0065729436 0.083813995
