# .PCD v0.7 - Point Cloud Data file format
VERSION 0.7
FIELDS x y z
SIZE 4 4 4
TYPE F F F
COUNT 1 1 1
WIDTH 162
HEIGHT 1
VIEWPOINT 0 0 0 1 0 0 0
POINTS 162
DATA ascii
0.00048491359 0.0031723683 -0.38080573
0.015005067 -0.0093207434 -0.37837973
-0.0055310279 -0.011961332 -0.37970936
0.042740464 -0.018966373 -0.28652322
0.040840432 -0.023214526 -0.33658135
0.044122458 -0.01585489 -0.29443631
-0.016457886 0.0030981633 -0.37751862
-0.0055240393 0.0089998599 -0.37952685
0.016399831 0.0073490948 -0.37766501
0.046784058 -0.017940676 -0.2085658
-0.018923819 -0.028803961 -0.30569741
-0.0047752112 -0.029273733 -0.29874057
0.015047945 -0.025157874 -0.20784095
-0.043941334 0.0031864857 -0.33026958
-0.043633699 -0.011061862 -0.33075252
-0.032177746 -0.01180705 -0.30923104
-0.018818244 0.025352983 -0.30628353
-0.02997148 0.023167087 -0.31384167
0.010951988 0.018449366 -0.20887738
0.042534828 0.015723485 -0.28719354
0.038982436 0.021113452 -0.30267876
0.044024877 0.018425187 -0.20747042
0.044462532 -0.02189061 -0.20763007
0.010756731 -0.02216265 -0.20881994
-0.031913072 0.012612508 -0.30905426
0.015314929 0.021275127 -0.20778447
0.046753034 0.014098149 -0.20836368
0.016172387 -0.028644718 -0.001815659
0.01973843 -0.026083719 0.0027495548
0.014580063 -0.016975949 0.046140905
-0.032944333 -0.020323306 -0.0044582793
-0.029708071 -0.024408408 0.0084752329
-0.032219667 -0.019071925 0.039654471
-0.032299858 0.016535867 -0.004051148
-0.033896483 0.012523997 0.0081761647
-0.031593639 0.015539349 0.039629798
0.01611466 0.02384497 -0.0016122572
0.00076597417 0.024531228 0.008741986
0.012672789 0.012340213 0.047381446
0.028040657 -0.0016534638 -0.0015311912
0.027512081 0.0036401621 0.0017594583
0.024340957 -0.0023133997 0.041710734
0.016182261 -0.0022279506 0.056365356
0.012064287 0.0042984933 0.05870444
0.0064869784 -0.0011819529 0.062159624
0.022192128 0.0043590525 0.046313729
0.021731462 0.018006327 0.004728945
0.019521702 0.021639155 0.0020480128
0.018619351 0.0091567365 0.047359664
0.0053563863 0.0076684612 0.060098898
-0.011308242 0.0079436665 0.060575046
0.0011321027 0.004147565 0.063059516
-0.016553808 0.017838465 0.04625009
-0.024450485 0.022212395 0.020207692
-0.029784687 0.01954728 0.008016903
-0.026546137 0.019017076 0.041987401
-0.02120992 0.0071434942 0.057285618
-0.021266345 -0.0022109265 0.058211342
-0.011714183 0.0029203501 0.06253387
-0.031901114 0.0089100506 0.044244312
-0.034559514 -0.0017088494 0.020312205
-0.033962816 -0.017080616 0.0080197295
-0.032159228 -0.013884934 0.043482065
-0.022648061 -0.011988381 0.05629307
-0.009819245 -0.01196945 0.06139151
-0.010985408 -0.0070373025 0.062818095
-0.026874414 -0.022480054 0.043896966
-0.024687728 -0.027022941 0.020581173
0.0019302205 -0.029343899 0.0086892461
-0.014533969 -0.021514218 0.04860903
0.0052052736 -0.012022922 0.060612164
0.012679847 -0.0088074943 0.058431171
0.0011529252 -0.0086326972 0.063174844
0.018508956 -0.013950677 0.047594022
0.022221653 -0.022380522 0.0026621101
0.027660202 -0.0082710283 0.00090743322
0.022334369 -0.0087594055 0.046351843
0.047892526 0.01616207 -0.15112197
0.036786914 0.020879621 -0.089905106
0.040528588 0.012639043 -0.10156353
0.046169616 0.019937262 -0.14722636
0.042022545 0.024378084 -0.14354546
0.029717267 0.028470282 -0.08781451
0.03253093 0.024839865 -0.08324267
0.012887452 0.02726768 -0.13377216
-0.0080567729 0.028368628 -0.066211686
0.019803533 0.029625794 -0.078126349
0.0042033829 0.025947886 -0.1227365
-0.0025338419 0.023800755 -0.1109017
-0.021496907 0.020784 -0.053728372
-0.018106155 0.024412224 -0.05343046
-0.008952979 0.018900203 -0.097869352
-0.030874589 0.012430596 -0.030209044
-0.026575379 0.0164016 -0.042868577
-0.0095195323 -0.0021799468 -0.098717347
-0.0090000816 -0.022992561 -0.097770616
-0.026769364 -0.020779192 -0.042437684
-0.030862648 -0.012352565 -0.03098347
-0.0029218085 -0.027816305 -0.11052433
-0.018649466 -0.028653713 -0.052890528
-0.021864722 -0.025174275 -0.052837685
0.0048980415 -0.030210035 -0.12442829
0.012787081 -0.031388935 -0.13528179
0.021028306 -0.034028783 -0.077718347
-0.0085936859 -0.032713678 -0.065430775
0.042878907 -0.02804381 -0.1430613
0.033404514 -0.028281579 -0.083452389
0.030375045 -0.032468881 -0.087189957
0.046351414 -0.023977431 -0.14750513
0.047933709 -0.020136369 -0.15108606
0.039878041 -0.013673709 -0.098452196
0.036186423 -0.024778061 -0.087649494
0.036499325 0.02677151 -0.13936225
0.039118126 0.020458952 -0.21988599
0.032861307 0.025194814 -0.31470954
-0.005257234 0.025787508 -0.30060911
0.019976698 0.021232305 -0.22001344
-0.0063353814 0.02139364 -0.10407248
-0.021110386 0.019998241 -0.29985791
-0.038933113 0.020190632 -0.33177805
-0.043571934 0.0077816886 -0.33073658
-0.031576812 0.016595207 -0.30916291
-0.0061114803 -0.025687344 -0.10466719
-0.031732365 -0.020133123 -0.30942613
-0.039040938 -0.023489552 -0.33179682
-0.031036332 -0.0261705 -0.31468731
-0.02075167 -0.022520393 -0.29868507
0.036263667 -0.031155225 -0.13899624
0.021397866 -0.025167165 -0.22001611
0.032899648 -0.028683698 -0.31398803
0.039131969 -0.024571596 -0.30196899
0.039281599 -0.024332887 -0.21987846
0.048343595 -0.0018777987 -0.1488598
0.047020406 -0.013570607 -0.22231495
0.044328347 -0.001605481 -0.3047055
0.04398559 0.012728686 -0.29490721
0.046970129 0.010181926 -0.22217879
0.029293105 0.0098120868 -0.3693234
0.02962622 0.025628235 -0.35445094
0.040886998 0.019953683 -0.33590925
0.010854825 0.021335082 -0.37344506
-0.012963086 0.022316538 -0.37149918
-0.022502035 0.030188372 -0.34306493
0.0062509179 0.031145375 -0.3536709
-0.034865573 0.024057867 -0.3458761
-0.025202021 0.0093066348 -0.37149274
-0.033518285 0.0030860403 -0.36532387
-0.04446359 0.0030667181 -0.34169817
-0.042669058 0.0089304438 -0.34615469
-0.04288727 -0.012024498 -0.34629869
-0.025742307 -0.012279402 -0.37131441
-0.013022557 -0.025459832 -0.37175888
-0.022580519 -0.033681955 -0.34363973
-0.035276249 -0.026363125 -0.34810656
0.041975364 0.0089200493 -0.3429991
0.041878417 -0.010706548 -0.34415984
0.032013983 -0.012802215 -0.36714625
0.030589908 0.0030428029 -0.36973941
0.0055615008 -0.034645069 -0.35492969
0.010943666 -0.024302384 -0.37376133
0.029937327 -0.028940655 -0.35484415
-0.0039263628 -0.0025049741 0.063988708
