# .PCD v0.7 - Point Cloud Data file format
VERSION 0.7
FIELDS x y z
SIZE 4 4 4
TYPE F F F
COUNT 1 1 1
WIDTH 162
HEIGHT 1
VIEWPOINT 0 0 0 1 0 0 0
POINTS 162
DATA ascii
0.020991832 -0.015664028 -0.35389119
0.025388077 -0.019175394 -0.35405189
0.013078958 -0.025159024 -0.35168633
0.054478407 -0.031339623 -0.30588496
0.054750979 -0.031361803 -0.33372355
0.057450891 -0.026867263 -0.31102887
0.0097263157 -0.01556108 -0.35051239
0.014909118 0.03202191 -0.35247606
0.028838381 0.020784751 -0.35388413
0.040069513 -0.02373755 -0.22879541
-0.01981163 -0.038177501 -0.28325567
0.0032335967 -0.044350356 -0.29600918
-0.010598175 -0.040611811 -0.21210524
-0.046765812 0.0023330078 -0.25660294
-0.046750188 -0.0063893194 -0.25419742
-0.051143199 -0.0093993181 -0.20789668
-0.019796506 0.054635044 -0.28134137
-0.029118359 0.045285195 -0.28705853
-0.030745871 0.052266475 -0.20997092
0.055563077 0.045979563 -0.30776805
0.051891655 0.051333286 -0.30694836
0.039664008 0.048470102 -0.20972435
0.037353761 -0.028433094 -0.22629078
-0.026728176 -0.035589352 -0.21295905
-0.04975412 0.0049596773 -0.20786998
-0.012386367 0.060020674 -0.21141508
0.040592909 0.04476561 -0.20845038
0.034039017 -0.082140818 -0.0028890045
0.040133726 -0.072987206 0.0036167651
0.01975048 -0.073196374 0.035117395
-0.052057426 -0.03071074 -0.0024497472
-0.040259164 -0.072606064 0.0037223324
-0.05748567 -0.020429673 0.046363346
-0.048954777 0.044715174 -0.0052013751
-0.055455714 0.016660556 -0.00088021904
-0.05801196 0.024524597 0.046290517
0.028855417 0.061639745 -0.0056420863
0.0017954467 0.065849058 0.0058188196
0.025110157 0.05580074 0.05017969
0.060271356 0.00018861852 -0.0040447321
0.06025999 0.028367374 0.0085768178
0.059265278 0.00012469229 0.033362351
0.045109998 -0.0012219944 0.071623355
0.033694938 0.016575048 0.075127155
0.024494087 -0.0050725057 0.080305725
0.049437225 0.021705613 0.060779877
0.058889389 0.03899632 0.02024167
0.050597418 0.047902279 0.0081885345
0.045975711 0.038004346 0.054323137
0.016676003 0.035834804 0.074336231
-0.011607159 0.029818881 0.077793971
0.0084097274 0.018009804 0.081046738
-0.005936591 0.055402588 0.05901245
-0.028461879 0.059782133 0.017415291
-0.046430066 0.048852697 0.0064714979
-0.038509369 0.044421662 0.055487402
-0.0378071 0.019749416 0.072067
-0.041957784 -0.0035680651 0.073393777
-0.018207043 0.011386459 0.080594465
-0.05902629 0.017710932 0.048166316
-0.060565826 -0.00025243912 0.038793709
-0.054406099 -0.02018033 0.012048203
-0.058882918 -0.014849748 0.048380565
-0.035402428 -0.015597634 0.076039627
-0.012216449 -0.020513305 0.081840605
-0.018689334 -0.015057376 0.08227063
-0.033452541 -0.029520687 0.061528418
-0.032021962 -0.080959894 0.015526243
0.001122609 -0.083720319 0.0081439689
-0.0054293275 -0.072457954 0.03999611
0.016409919 -0.021741014 0.080039233
0.032135859 -0.015592675 0.078048013
0.0087576099 -0.01691865 0.083706029
0.040409759 -0.02752652 0.060242724
0.059127346 -0.032519624 0.020443639
0.06021075 -0.02807536 0.0082047433
0.057472289 -0.022933004 0.035763256
0.04460445 0.04367651 -0.13775362
0.059384286 0.036353212 -0.04002158
0.058511637 0.0069079204 -0.050848454
0.044310056 0.047378995 -0.13925906
0.042088199 0.051753238 -0.14062005
0.039484274 0.056868739 -0.071996883
0.048150443 0.049147516 -0.058957122
0.00071178377 0.064457864 -0.14138483
-0.013299771 0.066825829 -0.060134053
0.014555082 0.066233315 -0.07216645
-0.02715674 0.059016321 -0.14134298
-0.040151287 0.049083449 -0.13908698
-0.046983127 0.046809006 -0.069750637
-0.039004147 0.057040591 -0.05976516
-0.052187935 0.016040808 -0.13773936
-0.058255829 0.0095945401 -0.049488794
-0.049270827 0.040327031 -0.073234782
-0.05527493 -0.0076933084 -0.13841824
-0.054980442 -0.011022404 -0.13854453
-0.054289389 -0.019435626 -0.051034547
-0.05825153 -0.005328313 -0.049478404
-0.028948568 -0.034562692 -0.14297487
-0.029446118 -0.074910901 -0.026933361
-0.04674001 -0.032758024 -0.051373012
-0.020321447 -0.039377946 -0.14269939
-0.00054583699 -0.04335206 -0.14190459
0.0099060265 -0.078830011 -0.036459479
-0.011715465 -0.079909556 -0.034796245
0.02976403 -0.034874748 -0.14331694
0.056848817 -0.032913759 -0.038318951
0.026767287 -0.074896663 -0.029427847
0.036661401 -0.02409973 -0.14107466
0.041821014 -0.009453374 -0.13808855
0.057988007 -0.0063366508 -0.051049255
0.059373401 -0.02874217 -0.037874036
0.027512822 0.060028251 -0.1417976
0.035596132 0.052705456 -0.22369596
0.036392912 0.058506213 -0.31069362
0.00058422983 0.058644913 -0.29550916
0.01759617 0.05963498 -0.22454792
-0.047068715 0.0353445 -0.13833186
-0.038175359 0.041320652 -0.22092165
-0.03364832 0.038139466 -0.28252926
-0.041994482 0.021209331 -0.26652008
-0.045312494 0.022629745 -0.22023034
-0.053253435 -0.014453897 -0.14018112
-0.049458131 -0.012779118 -0.22103173
-0.029490635 -0.030138724 -0.28613526
-0.027709246 -0.033632878 -0.28494331
-0.046847127 -0.016291181 -0.22278067
0.02102891 -0.039421581 -0.14285627
0.011406533 -0.04046116 -0.22445907
0.036653653 -0.044937864 -0.31063971
0.051201239 -0.03539978 -0.30688745
0.030772664 -0.035188831 -0.22410518
0.043057404 0.0027409072 -0.13787633
0.040492699 -0.020077689 -0.2299636
0.058710203 -0.015190774 -0.31610608
0.057704538 0.027833646 -0.31112552
0.04049819 0.020611389 -0.22956233
0.039483681 0.033124983 -0.35079336
0.043743268 0.05064958 -0.34413838
0.056426197 0.043434855 -0.33209383
0.021981835 0.043309696 -0.35350591
0.0084634125 0.045045856 -0.34890211
-0.0051144809 0.050225366 -0.32971454
0.014411405 0.053265311 -0.34580669
-0.0098772198 0.044415362 -0.32624769
0.0015672743 0.024986161 -0.34473699
0.00045470893 -0.015663311 -0.34372002
-0.031606615 -0.0010953019 -0.28977358
-0.017734215 0.026453575 -0.3140884
-0.017558023 -0.025140077 -0.31428367
0.0024624765 -0.025012946 -0.34540075
0.010664478 -0.030753881 -0.34986237
-0.0043789446 -0.034805555 -0.32928443
-0.0098057091 -0.030764254 -0.32586303
0.056030303 0.020462384 -0.33434063
0.055491313 -0.017178312 -0.33474869
0.038897395 -0.028209498 -0.35066897
0.038867339 -0.014877541 -0.3506366
0.018159181 -0.043102413 -0.33850014
0.024685085 -0.030093549 -0.35335916
0.043527097 -0.035645988 -0.34255069
0.00063998997 -0.005965278 0.083713308
