# .PCD v0.7 - Point Cloud Data file format
VERSION 0.7
FIELDS x y z
SIZE 4 4 4
TYPE F F F
COUNT 1 1 1
WIDTH 162
HEIGHT 1
VIEWPOINT 0 0 0 1 0 0 0
POINTS 162
DATA ascii
-0.0012338918 -0.028900705 -0.05602926
0.0071708639 -0.040917959 -0.056539141
-0.0029826274 -0.044250257 -0.056880321
0.040563218 -0.048215438 -0.049388126
0.027221827 -0.043222181 -0.052359108
0.040403917 -0.041059107 -0.04949899
-0.006052285 -0.027057685 -0.05558224
-0.0024605673 0.0016257592 -0.053823661
0.0041124132 -0.0093413191 -0.054472059
0.042337596 -0.047730532 -0.048656471
-0.008180012 -0.049833283 -0.056126215
-0.00013484717 -0.049660034 -0.056749832
-0.0075277775 -0.051083025 -0.055858485
-0.09439069 0.00012241383 -0.048106119
-0.093700208 -0.0062425109 -0.04784397
-0.09532629 -0.0060218368 -0.047524616
-0.0084692631 0.028902039 -0.046200283
-0.076505639 0.01293413 -0.046493568
-0.076277584 0.01988567 -0.044029012
0.0177508 0.017952604 -0.045895107
0.012389269 0.028028667 -0.04545844
0.018937139 0.028566498 -0.042962093
0.041064419 -0.049256764 -0.049104646
-0.032927096 -0.050445709 -0.050718755
-0.09529195 0.0046325605 -0.04766256
-0.0057956385 0.030238558 -0.045975935
0.041273285 -0.022782305 -0.047119819
0.038794987 -0.0713998 -0.0035221814
0.053889696 -0.054905716 0.0045439363
0.021969669 -0.066188291 0.040953822
-0.10044694 -0.044872295 -0.0035631151
-0.055672765 -0.065690309 0.0062429351
-0.089951761 -0.030539744 0.037764546
-0.10030416 0.045038339 -0.0036883741
-0.10461498 0.030253183 0.0081626028
-0.089869313 0.030333638 0.037843
0.03272476 0.047337543 -0.0025526495
0.0012828618 0.047683947 0.0081207398
0.02613602 0.04166102 0.030286064
0.054956146 -0.014427593 -0.0010666432
0.051281348 0.025114965 0.0090775248
0.047860429 -0.022041965 0.039146747
0.041107468 -0.023661751 0.047665522
0.018476259 0.017600661 0.045924317
0.01531352 -0.0069765397 0.052499961
0.046462029 0.028116854 0.026344586
0.049369637 0.033918437 0.01695504
0.04481278 0.041661654 0.0060473401
0.039883789 0.036437113 0.028658651
0.010818436 0.02949365 0.04567036
-0.0064897309 0.0283967 0.046923824
0.00077858672 0.004259842 0.053645667
-0.003943488 0.040956032 0.036880288
-0.041007169 0.045922741 0.0099114031
-0.077148147 0.048190162 0.0049693957
-0.05161364 0.030375905 0.035213411
-0.075589992 0.012104748 0.046956465
-0.075523652 8.3197199e-05 0.048475634
-0.013547841 0.0062198308 0.052050784
-0.094552584 0.012403821 0.046680894
-0.10457589 5.2756805e-05 0.020442452
-0.10449664 -0.030064968 0.0081565781
-0.094568722 -0.011669079 0.046945423
-0.040821873 -0.040786475 0.049533069
-0.0082871718 -0.044104714 0.056616928
-0.013814161 -0.024091218 0.054229554
-0.041834239 -0.052110922 0.048087999
-0.040653024 -0.07165768 0.019639753
0.0018022812 -0.07082466 0.018183688
-0.0040672207 -0.065311909 0.046752993
0.011285049 -0.049060877 0.055789936
0.038645584 -0.034313064 0.049672522
0.0056256009 -0.031888094 0.05614594
0.044209339 -0.049972415 0.047165602
0.055797443 -0.049250003 0.0097150235
0.056388471 -0.033870649 0.0026231194
0.047999628 -0.033142377 0.042447455
0.044133969 -0.021261917 -0.044403311
0.048922725 0.031559654 -0.022081142
0.049018756 0.026503827 -0.022576924
0.044020921 0.032409556 -0.027546003
0.036294118 0.037568886 -0.029847138
0.036277093 0.040558506 -0.027543735
0.046421815 0.035092354 -0.02377392
-0.00024576767 0.034036517 -0.044125207
-0.012015675 0.042782586 -0.032317434
0.01018857 0.042381752 -0.033562124
-0.013090709 0.032888826 -0.043109823
-0.091934539 0.026160059 -0.040599465
-0.093935162 0.035032298 -0.033006147
-0.075446412 0.039629925 -0.027497822
-0.097092167 0.011311454 -0.045833025
-0.10278882 0.010293324 -0.040854312
-0.099578165 0.026133312 -0.037494022
-0.097201996 0.00011686034 -0.047107793
-0.09700451 -0.012621077 -0.045489985
-0.099648215 -0.026056394 -0.037437003
-0.10290179 -0.010835152 -0.040284444
-0.04192248 -0.051440865 -0.048120622
-0.04141042 -0.067015223 -0.036366947
-0.093936652 -0.034849159 -0.03343419
-0.030822853 -0.064797804 -0.045725062
-8.8659763e-05 -0.05347028 -0.055157259
0.01037064 -0.069034927 -0.042879019
-0.027101031 -0.070086271 -0.041301951
0.041930862 -0.051306076 -0.048121434
0.048462078 -0.051611479 -0.040930513
0.04217615 -0.054942429 -0.045042742
0.043786831 -0.048945498 -0.047611002
0.046124443 -0.0410777 -0.045803703
0.048471 -0.025894377 -0.039879922
0.049652144 -0.044955641 -0.039988883
0.012327776 0.032920688 -0.043232914
0.012634584 0.029368581 -0.045028225
0.0061915484 0.028474463 -0.046600517
-0.00031972787 0.028673304 -0.04701646
0.0056687729 0.029894177 -0.046194062
-0.094819717 0.020004975 -0.043681838
-0.092892297 0.012477347 -0.04663039
-0.093076833 0.010932547 -0.047025576
-0.093664937 0.004829484 -0.047983155
-0.094353959 0.011086026 -0.046840668
-0.094706923 -0.018384816 -0.044409357
-0.094324656 -0.0076341941 -0.047521312
-0.093049899 -0.0072351689 -0.047761843
-0.023689359 -0.048973855 -0.052975092
-0.040734217 -0.04924047 -0.049238954
0.02628354 -0.052504241 -0.051243015
0.0070139426 -0.050745483 -0.056020297
0.0075579141 -0.049459051 -0.056271873
0.025571058 -0.048854321 -0.052562028
0.029509444 -0.050069384 -0.051508397
0.045295976 -0.024772275 -0.044762373
0.041863196 -0.033340968 -0.048206899
0.040138047 -0.025473084 -0.048321258
0.039902922 -0.024350615 -0.048224743
0.041549809 -0.024374712 -0.047501259
0.0092235897 -0.0031108591 -0.053400293
0.0045505892 0.0012207875 -0.05356504
0.010228653 -0.0025383302 -0.053103834
0.00081111252 0.0025730005 -0.053691026
-0.0054146335 0.0066879429 -0.053190187
-0.0064164065 0.008099582 -0.052810848
-0.0019505859 0.0055382345 -0.053425044
-0.076410338 0.0069234218 -0.047814649
-0.0062069013 0.0029953697 -0.053404253
-0.082299672 -5.1158764e-05 -0.048289075
-0.0930923 0.00012338955 -0.048270602
-0.092539482 0.0046496042 -0.048071578
-0.092575029 -0.0060732332 -0.047930405
-0.0078156963 -0.041203018 -0.056520022
-0.0044059153 -0.044681948 -0.056825921
-0.0076001906 -0.048782036 -0.056358829
-0.0085692173 -0.04810315 -0.056265388
0.014685425 -0.006068008 -0.052388076
0.034278315 -0.040757865 -0.05085336
0.0081133032 -0.041365918 -0.056446239
0.0089575201 -0.025542149 -0.055066373
0.00015721725 -0.048661236 -0.05688487
0.0028562697 -0.045026179 -0.056918334
0.0077593625 -0.048294742 -0.056373142
-8.9422574e-05 -0.0077940421 0.054778669
