# .PCD v0.7 - Point Cloud Data file format
VERSION 0.7
FIELDS x y z
SIZE 4 4 4
TYPE F F F
COUNT 1 1 1
WIDTH 162
HEIGHT 1
VIEWPOINT 0 0 0 1 0 0 0
POINTS 162
DATA ascii
0.0011400566 0.02950716 -0.05612319
0.0053858939 0.0098888297 -0.054441899
7.3253505e-05 -0.0004382738 -0.053948745
0.015882406 0.0040961024 -0.051646188
0.011309884 0.0030969707 -0.052931324
0.039990611 0.024212122 -0.048233327
-0.0052215657 0.027446743 -0.055741198
-0.0026614277 0.04450769 -0.056984521
0.0071577206 0.040850207 -0.056627803
0.041317299 0.022752276 -0.047199428
-0.0061799847 -0.0289678 -0.046515986
0.0022786371 -0.028686369 -0.046892066
-0.0055638985 -0.030323869 -0.046094101
-0.094390273 0.00012038252 -0.048106514
-0.093720071 -0.0062434608 -0.047827415
-0.095345728 -0.0060227807 -0.047508337
-0.0078015579 0.049767815 -0.056244284
-0.024055917 0.048914231 -0.05295676
-0.033187158 0.050390061 -0.050736066
0.040906444 0.048159193 -0.049286511
0.024600534 0.048795559 -0.052803122
0.041402891 0.049201474 -0.04900527
0.019221988 -0.028623451 -0.042796995
-0.076327145 -0.018686611 -0.044524916
-0.095325641 0.0062546576 -0.04749063
-0.0071554352 0.051019318 -0.055976007
0.042678498 0.047674958 -0.048559386
0.032006644 -0.047514729 -0.0034004368
0.045042805 -0.041596863 0.0042626532
0.026248921 -0.041644905 0.030319512
-0.1002156 -0.045052081 -0.0026976427
-0.077179737 -0.048167925 0.0050980588
-0.089870647 -0.031205283 0.037130021
-0.099966317 0.045274954 -0.0027406977
-0.10446296 0.030154714 0.0080800904
-0.089963451 0.030477084 0.037815582
0.038897645 0.071401231 -0.0035190254
0.0026093195 0.070859849 0.018153517
0.022529999 0.066227332 0.0406156
0.054998066 0.014481151 -0.00048926007
0.056257982 0.033496983 0.0040436592
0.04811221 0.022925455 0.039268121
0.04157446 0.02355602 0.047346301
0.038521081 0.033838358 0.049518958
0.016582057 0.0073115565 0.052128784
0.047539867 0.032665193 0.043091498
0.056066569 0.049263041 0.0093892757
0.053515412 0.054903626 0.0070589399
0.044242948 0.05001723 0.047113806
0.011357666 0.049118176 0.055676606
-0.008424731 0.044789124 0.056486174
0.0060766991 0.032105908 0.056062888
-0.0065987427 0.055343993 0.053313624
-0.041193571 0.071747124 0.020477206
-0.055642165 0.06569472 0.0064106188
-0.041795272 0.052148335 0.048021644
-0.040126193 0.040700614 0.049691457
-0.075523108 0.00023858441 0.048475035
-0.014110745 0.023963142 0.054124571
-0.09456899 0.011495515 0.046987306
-0.10456355 -7.605373e-05 0.020419007
-0.10463885 -0.030061049 0.008203675
-0.094548844 -0.012271633 0.046702478
-0.075589754 -0.011792223 0.047028989
-0.0086025633 -0.028338181 0.046639096
-0.013604305 -0.0059522167 0.052065324
-0.052001569 -0.031205615 0.034805417
-0.041471694 -0.046087779 0.0092167174
0.0012179198 -0.047662817 0.0080480194
-0.0036498273 -0.040692262 0.037231039
0.010326173 -0.029431207 0.045807887
0.01825908 -0.017454743 0.046041477
0.0011844172 -0.0037933206 0.053694285
0.040331651 -0.036181163 0.028495034
0.049325678 -0.034020737 0.017337449
0.051309876 -0.02504253 0.0093023153
0.046397079 -0.027446909 0.026474826
0.046205834 0.04102445 -0.045783207
0.049714498 0.045925412 -0.039864354
0.048527051 0.025945222 -0.039715193
0.044123393 0.048892528 -0.047520697
0.042261191 0.051253494 -0.048027039
0.04248343 0.054899987 -0.044958211
0.048592351 0.051565193 -0.040675752
5.7430978e-05 0.053408071 -0.055222601
-0.027107591 0.070046768 -0.041384887
0.010900864 0.06898313 -0.042666875
-0.030935694 0.064747013 -0.045750685
-0.041965794 0.051388975 -0.048192706
-0.093936406 0.034995854 -0.033280425
-0.040091302 0.067209169 -0.037642479
-0.096995547 0.012793302 -0.045443937
-0.10267293 0.011308877 -0.040458798
-0.099649623 0.025930677 -0.037528165
-0.097201601 0.00011492119 -0.04710817
-0.097041823 -0.012618735 -0.04545889
-0.099572025 -0.023432868 -0.039233789
-0.1031642 -0.010614009 -0.039933968
-0.091911182 -0.02480706 -0.041451178
-0.075438708 -0.039780103 -0.027279859
-0.094026729 -0.03481248 -0.033353481
-0.013954798 -0.033120573 -0.042651366
0.0018932483 -0.033817466 -0.044197362
0.010241728 -0.042260565 -0.033743668
-0.010179766 -0.042807493 -0.03290803
0.03652681 -0.037262563 -0.029786592
0.046571601 -0.035218451 -0.023493327
0.036573239 -0.040738832 -0.027094014
0.044208128 -0.032048035 -0.027470581
0.044200271 0.021229452 -0.044442263
0.048918009 -0.02652791 -0.022714624
0.048915341 -0.03145222 -0.022113908
0.02592949 0.052447475 -0.051344153
0.028818822 0.050012197 -0.051671535
0.0079417499 0.049393114 -0.056291532
1.8497953e-05 0.049594205 -0.056819208
0.0073913489 0.050680682 -0.056038909
-0.094715163 0.018548777 -0.044339564
-0.04077797 0.049185708 -0.049312837
-0.093049526 0.007472605 -0.047728542
-0.093699753 0.0064793178 -0.047809832
-0.094326757 0.0076786405 -0.04752966
-0.094979912 -0.018418195 -0.044312242
-0.094346531 -0.0074455971 -0.047545593
-0.093069836 -0.0072360653 -0.047745246
-0.076683909 -0.011818621 -0.046851099
-0.092843339 -0.013831393 -0.046253085
0.012487636 -0.033156194 -0.042999916
0.0032952758 -0.029894933 -0.046443604
0.0037843408 -0.028473902 -0.046849199
0.012372 -0.028087894 -0.045428481
0.012617544 -0.02942707 -0.04499881
0.045595642 0.024695501 -0.044449344
0.041637607 0.024237353 -0.047510684
0.040225718 0.025334716 -0.048329346
0.040411819 0.041003071 -0.049584027
0.041919194 0.033622552 -0.048283301
0.0081003988 0.041298371 -0.056534737
0.0081455596 0.048228163 -0.056393102
0.027251188 0.042563394 -0.052446365
0.004226794 0.044300102 -0.056904033
-0.0030281099 0.045269579 -0.056971047
-0.0072186217 0.048715912 -0.056478627
0.00031183058 0.048594669 -0.05695479
-0.0081977313 0.047738463 -0.056391541
-0.00780932 0.041133884 -0.056634419
-0.080984943 0.0014059629 -0.048336469
-0.093091875 0.00012134206 -0.048271
-0.091761157 0.0061166808 -0.047918681
-0.0925951 -0.0060742013 -0.047913749
-0.0059583355 -0.0024483297 -0.053484507
-0.0050470806 -0.0064073345 -0.053262442
-0.0079930462 -0.0096767666 -0.052287102
-0.076460749 -0.005605476 -0.047955412
0.03429772 0.040699575 -0.050935902
0.034076992 0.02477143 -0.049661182
0.0064974059 0.001268981 -0.053683363
0.0093278205 0.026606951 -0.055111021
-0.0040997742 -0.0071610264 -0.053133991
0.0010575672 -0.0023706495 -0.053787321
0.0040842025 -0.001549462 -0.053549562
-2.5244302e-05 0.0076707038 0.054756615
