# .PCD v0.7 - Point Cloud Data file format
VERSION 0.7
FIELDS x y z
SIZE 4 4 4
TYPE F F F
COUNT 1 1 1
WIDTH 162
HEIGHT 1
VIEWPOINT 0 0 0 1 0 0 0
POINTS 162
DATA ascii
0.0010766238 -0.0038589414 -0.38086483
0.014224261 -0.0074204719 -0.37851441
-0.0055677146 -0.0096802404 -0.37960321
0.042721227 -0.015942466 -0.28708285
0.040750697 -0.02052387 -0.33671737
0.043959022 -0.013277569 -0.29490829
-0.0165032 -0.0037460166 -0.37751758
-0.0055797398 0.011289692 -0.37972736
0.015929714 0.0093757277 -0.37797499
0.046580926 -0.014862955 -0.20849366
-0.018953338 -0.02598667 -0.30611679
-0.0039696693 -0.02631101 -0.29935756
0.015080243 -0.021806123 -0.20798957
-0.043981835 -0.0039005084 -0.33028615
-0.043645471 -0.0084904805 -0.33078808
-0.031949684 -0.012282546 -0.30908296
-0.018961489 0.028012956 -0.30542183
-0.030563012 0.025986984 -0.31491828
0.010748826 0.021714218 -0.20875841
0.042656817 0.018377228 -0.28660482
0.039149553 0.02378674 -0.30202338
0.044159189 0.021608299 -0.20745087
0.044182964 -0.018692439 -0.20769042
0.010920286 -0.019083096 -0.20908689
-0.032150716 0.012044626 -0.30918738
0.015132189 0.024641247 -0.207626
0.046799347 0.017178115 -0.20844544
0.015927445 -0.024281176 -0.000457644
0.019412346 -0.021860538 0.002629824
0.014515677 -0.012470962 0.045398571
-0.032816265 -0.016421089 -0.0044167489
-0.029430211 -0.020236868 0.0080337208
-0.031689931 -0.016093297 0.039290965
-0.033082522 0.019683845 -0.0038504926
-0.034127314 0.016532306 0.0081312666
-0.032337602 0.018853167 0.039693259
0.016099993 0.028292252 5.5977143e-05
0.0017755912 0.029011929 0.0086565223
0.014218471 0.016767189 0.045767777
0.027915645 0.0015998823 -0.0014118254
0.027512627 0.0075040055 0.002095161
0.024217049 0.0018155394 0.041670039
0.017878992 0.0019633595 0.054340169
0.012611257 0.0085474635 0.058333479
0.0053150021 0.001535285 0.062552989
0.022300057 0.0083038285 0.046290711
0.021778198 0.022072205 0.0046484917
0.019759452 0.025767883 0.0014890255
0.018957786 0.012983522 0.047167797
0.0037456565 0.012659297 0.060362842
-0.010095078 0.011723145 0.061261088
0.0010382608 0.0083695101 0.0631155
-0.015285728 0.021570688 0.047805779
-0.025017183 0.026643958 0.020541282
-0.030323738 0.023638021 0.008218362
-0.027337436 0.022852875 0.042372234
-0.021402596 0.011368368 0.057338275
-0.021381253 0.0019377788 0.058172099
-0.01184112 0.0071304445 0.062540315
-0.032055594 0.013000653 0.044178981
-0.034677368 0.0014096928 0.020358585
-0.034023777 -0.013030688 0.0079423245
-0.032253131 -0.0098007293 0.043473393
-0.02268919 -0.007771865 0.056160875
-0.010938123 -0.0080414927 0.06075035
-0.011225898 -0.0029081504 0.062669195
-0.026595287 -0.019149378 0.04227709
-0.024404148 -0.022580674 0.020267621
0.0016303791 -0.024888052 0.0086696586
-0.016075421 -0.017846067 0.046801396
0.0049091391 -0.00780654 0.060284473
0.012630677 -0.004633856 0.058186494
0.0010175146 -0.0044084862 0.063025445
0.018348657 -0.0097020045 0.046827465
0.021941295 -0.018320424 0.002659006
0.02745055 -0.0042499444 0.00087938178
0.022078449 -0.0046161101 0.046281364
0.047873992 0.019490836 -0.15122548
0.036787324 0.024475947 -0.090009838
0.040473279 0.012847561 -0.10110101
0.046278022 0.02329327 -0.14744505
0.042683046 0.027513234 -0.14342764
0.029688075 0.03224501 -0.087206893
0.032881189 0.028073316 -0.083082333
0.012420624 0.030974096 -0.13452293
-0.0084780492 0.032370746 -0.065510213
0.019839885 0.03363787 -0.078226388
0.0039408579 0.029706523 -0.12257712
-0.002903644 0.027532112 -0.11050465
-0.02201128 0.024610763 -0.053128961
-0.018672321 0.028346976 -0.052798141
-0.0090757795 0.022654386 -0.0979295
-0.030974803 0.012590578 -0.031007534
-0.026940787 0.020273695 -0.042438187
-0.0096304268 0.001525585 -0.098733991
-0.0090979151 -0.019278543 -0.09772265
-0.02664849 -0.016905641 -0.042896923
-0.030988825 -0.012188111 -0.030251415
-0.0028627627 -0.024121808 -0.11055504
-0.018326469 -0.02471281 -0.053534895
-0.021570668 -0.021357974 -0.053493634
0.0049668364 -0.026517468 -0.12438063
0.012777101 -0.027629884 -0.13542977
0.02090838 -0.030011455 -0.07768245
-0.0083792992 -0.028708458 -0.066183731
0.042001206 -0.024894681 -0.14338024
0.033103973 -0.024581481 -0.083476149
0.030109931 -0.028637799 -0.087366641
0.046208583 -0.020363152 -0.14712687
0.047771547 -0.016805246 -0.15105328
0.039640602 -0.013662077 -0.098548234
0.036022849 -0.021163164 -0.087761104
0.036473028 0.030490607 -0.13924983
0.039253891 0.023719382 -0.21979913
0.032869115 0.027984334 -0.31412703
-0.0057162493 0.028756816 -0.30104923
0.019871928 0.024594182 -0.219859
-0.0064762197 0.025078639 -0.10428897
-0.020516008 0.022032078 -0.29842794
-0.039084092 0.022779843 -0.33185738
-0.043674424 0.010355906 -0.33078912
-0.031705096 0.019233292 -0.30931559
-0.0061520934 -0.022020223 -0.10458894
-0.031553417 -0.017483015 -0.30917794
-0.039003044 -0.02090659 -0.33180404
-0.030050009 -0.024120994 -0.31444502
-0.021327719 -0.019847851 -0.29942676
0.036658615 -0.027203035 -0.13959377
0.021421261 -0.021786978 -0.22009099
0.032705024 -0.025894819 -0.31443477
0.038651869 -0.022107536 -0.30273134
0.039058335 -0.021049945 -0.21998724
0.048251674 0.0014474011 -0.14887777
0.046914406 -0.010587734 -0.2221652
0.044265747 0.0010126587 -0.30471951
0.044020519 0.015297553 -0.29447883
0.046920992 0.013164703 -0.2223767
0.029351115 0.012142007 -0.36949396
0.029820904 0.028164409 -0.35459763
0.0410368 0.022358825 -0.33605224
0.010888994 0.023646299 -0.37377721
-0.013061568 0.024751639 -0.37182236
-0.021995082 0.033301704 -0.34189695
0.0063866079 0.033860978 -0.35488796
-0.035094544 0.026556734 -0.3462857
-0.025407434 0.01161327 -0.37163779
-0.034253687 -0.0037566416 -0.36464319
-0.044502124 -0.0037223713 -0.34168926
-0.042844996 0.011358612 -0.34625983
-0.042829677 -0.0096073253 -0.34628472
-0.025640786 -0.0099835116 -0.37126848
-0.013017699 -0.023041518 -0.37152317
-0.021317497 -0.03122275 -0.3435452
-0.035067663 -0.024106087 -0.34734654
0.041977942 0.011278349 -0.34308326
0.041855216 -0.0097431121 -0.34310764
0.029319435 -0.010474075 -0.3693049
0.030047908 -0.0036668181 -0.37024879
0.0071754903 -0.031889476 -0.35475302
0.010823801 -0.022004163 -0.37350702
0.029619977 -0.026301604 -0.35443819
-0.0040428583 0.001771825 0.063944258
