# .PCD v0.7 - Point Cloud Data file format
VERSION 0.7
FIELDS x y z
SIZE 4 4 4
TYPE F F F
COUNT 1 1 1
WIDTH 162
HEIGHT 1
VIEWPOINT 0 0 0 1 0 0 0
POINTS 162
DATA ascii
0.0012139082 -0.0031213958 -0.38086164
0.015882596 -0.0072687203 -0.37763119
-0.0060700327 -0.0089723207 -0.37955293
0.042274043 -0.015332967 -0.28698474
0.040126413 -0.020094918 -0.33612749
0.043504953 -0.012713342 -0.29487324
-0.017028779 -0.0030665647 -0.37751156
-0.0061157346 0.01199701 -0.37970132
0.015497357 0.010152559 -0.37788165
0.04628592 -0.014574361 -0.20818277
-0.019816786 -0.025257435 -0.30600885
-0.0051731467 -0.025718549 -0.29872578
0.014823169 -0.0215501 -0.20773658
-0.044514716 -0.0033285604 -0.33019024
-0.044157639 -0.0079368334 -0.33070594
-0.032363296 -0.011857069 -0.3089484
-0.019206703 0.028633965 -0.30518121
-0.031095758 0.026559561 -0.31462511
0.010385081 0.021976868 -0.20915544
0.042179652 0.01875175 -0.28390968
0.038667008 0.024425594 -0.30187321
0.043826662 0.021901051 -0.20756891
0.043756738 -0.018534321 -0.2073504
0.010528646 -0.018654088 -0.20878145
-0.031987324 0.01189579 -0.30826604
0.014790162 0.024912369 -0.20799026
0.046457924 0.017473619 -0.20842929
0.016123939 -0.024624877 -0.0015729233
0.019373277 -0.022384057 0.0032659722
0.014426481 -0.013034281 0.046033259
-0.032765344 -0.016920894 -0.0045907767
-0.029518887 -0.020699952 0.0083066691
-0.031550653 -0.016822167 0.039097343
-0.03305383 0.019222192 -0.0041649491
-0.034100533 0.016021799 0.0079244589
-0.032241773 0.018255197 0.039792549
0.016060084 0.027839577 -0.00086993305
0.001261936 0.028503999 0.0087389294
0.014050251 0.015992545 0.046987131
0.027949005 0.0012988683 -0.0014239084
0.027583078 0.0074824137 0.00071651582
0.024321113 0.0012843482 0.041686628
0.016176116 0.0013936914 0.056348726
0.012608053 0.007973941 0.058428444
0.0060917959 0.00065136567 0.062324017
0.022671228 0.0073149516 0.045493983
0.021754902 0.021719323 0.0047098743
0.019847412 0.024940496 0.0028486
0.019518226 0.012678526 0.046513904
0.0038379878 0.012048305 0.060387067
-0.010444464 0.011176302 0.061175972
0.0011429619 0.0077649355 0.063155979
-0.015719615 0.021116048 0.047557577
-0.024880098 0.026057297 0.020306477
-0.030171715 0.023220686 0.008043603
-0.026695138 0.022602845 0.042465478
-0.021297341 0.010744352 0.057403155
-0.021274086 0.0013220682 0.058233067
-0.011734251 0.0065107001 0.062599152
-0.031975053 0.012404416 0.044278853
-0.034620225 0.0015828481 0.02019475
-0.033957545 -0.013540287 0.0078502381
-0.032137688 -0.010394281 0.043509897
-0.022581758 -0.008397446 0.056220129
-0.010327732 -0.0087282974 0.060846914
-0.011014821 -0.0034744795 0.062756479
-0.027100496 -0.019356877 0.042444158
-0.024566565 -0.023121165 0.020487437
0.0010049695 -0.025408056 0.0084772408
-0.015455805 -0.01818186 0.047422551
0.005141329 -0.008305585 0.06040778
0.012063831 -0.0051385984 0.058716696
0.0011421237 -0.0050180336 0.06307406
0.01827893 -0.010235599 0.047471456
0.02196227 -0.018745763 0.0029425453
0.027611786 -0.0038772172 0.0014799731
0.022211466 -0.0051646917 0.046295907
0.047609083 0.019615397 -0.15119731
0.036615312 0.024388794 -0.089954391
0.040294949 0.012678457 -0.10102428
0.046042386 0.023381367 -0.14753014
0.042470582 0.027586278 -0.14360808
0.02958896 0.032150418 -0.087416701
0.03277833 0.02794666 -0.083188817
0.013031311 0.030895157 -0.13594297
-0.0084416661 0.032161377 -0.065840587
0.019979624 0.033471521 -0.07814429
0.0038496032 0.029612266 -0.12310678
-0.0028560348 0.027406676 -0.11121869
-0.021917768 0.024366435 -0.053517375
-0.018585023 0.028079143 -0.053196911
-0.0091000013 0.022458313 -0.098312788
-0.031011529 0.012654695 -0.030817768
-0.026854053 0.019966656 -0.042769801
-0.0096627101 0.0013904248 -0.09900555
-0.0091242008 -0.019409727 -0.097942129
-0.026680613 -0.017011892 -0.04299178
-0.030815685 -0.012138157 -0.030870069
-0.0030030124 -0.024219519 -0.11049552
-0.01857144 -0.024948705 -0.053266264
-0.021285094 -0.02215774 -0.053310677
0.0042504184 -0.026752194 -0.12221828
0.012582403 -0.027632484 -0.13514845
0.020856472 -0.030169522 -0.07773307
-0.0085984897 -0.028982669 -0.06604778
0.041495986 -0.025055692 -0.14300478
0.032906644 -0.02472366 -0.083206043
0.030047925 -0.028739966 -0.08743687
0.045991026 -0.020267172 -0.14683412
0.04755773 -0.0166899 -0.15091747
0.039474312 -0.013805514 -0.098377906
0.035858929 -0.021261394 -0.0875284
0.036273781 0.030552013 -0.13952333
0.038863726 0.024076371 -0.22001523
0.032390267 0.028692201 -0.31422687
-0.0048374534 0.029230228 -0.2996403
0.02113612 0.024948752 -0.22033608
-0.0065400563 0.02492626 -0.10456804
-0.021091208 0.022511359 -0.29827598
-0.039688647 0.023390403 -0.3316983
-0.044244781 0.010931392 -0.33064812
-0.030701786 0.019992128 -0.30744648
-0.006235946 -0.022127824 -0.10467491
-0.031948045 -0.016871994 -0.30904043
-0.039471626 -0.020349545 -0.33177078
-0.030551285 -0.023246173 -0.31372911
-0.021714061 -0.019748885 -0.29969734
0.036206797 -0.027260276 -0.13980168
0.021132983 -0.021468755 -0.21978617
0.032286793 -0.025158253 -0.31424424
0.038201675 -0.021405144 -0.30257863
0.038936853 -0.020633366 -0.21964675
0.048015263 0.001567269 -0.14870767
0.046595089 -0.010256425 -0.2219273
0.043775782 0.001617172 -0.30454177
0.043550298 0.015741684 -0.29427916
0.046547949 0.013519589 -0.22225747
0.028999478 0.01286839 -0.36929461
0.029318511 0.028963923 -0.35488325
0.040532604 0.022492465 -0.33672011
0.010376349 0.024340902 -0.3737393
-0.013618365 0.02546484 -0.37178829
-0.022635743 0.033952214 -0.3419688
0.0064622909 0.034599572 -0.35405242
-0.035608888 0.027104879 -0.34667134
-0.025176138 0.012279646 -0.37221768
-0.034430996 -0.0031256001 -0.36501247
-0.045037195 -0.0031553626 -0.34185672
-0.043438464 0.011951393 -0.34617814
-0.043332756 -0.0090592373 -0.34623104
-0.027604684 -0.0093607744 -0.37020802
-0.013092816 -0.022341896 -0.37160835
-0.023363605 -0.030224886 -0.34310269
-0.035469666 -0.023632364 -0.34707689
0.04141444 0.011953722 -0.34305143
0.041355386 -0.0097116148 -0.34263793
0.029118732 -0.0096997991 -0.36892945
0.029811054 -0.0029494895 -0.36995381
0.0067186058 -0.031147799 -0.35362703
0.01033999 -0.021270353 -0.37345475
0.029074013 -0.025568727 -0.35480815
-0.0039255675 0.0011480124 0.063993894
