# .PCD v0.7 - Point Cloud Data file format
VERSION 0.7
FIELDS x y z
SIZE 4 4 4
TYPE F F F
COUNT 1 1 1
WIDTH 162
HEIGHT 1
VIEWPOINT 0 0 0 1 0 0 0
POINTS 162
DATA ascii
0.00059683621 0.0027100425 -0.38096356
0.016142786 -0.0090359477 -0.37810823
-0.005925566 -0.012407324 -0.37984461
0.042632513 -0.018923851 -0.28657076
0.040464774 -0.023633199 -0.33657908
0.043772385 -0.016172608 -0.29434228
-0.016830325 0.0026550973 -0.37764245
-0.005882889 0.0085669784 -0.37965786
0.016040087 0.0068788542 -0.37780547
0.046528846 -0.018054169 -0.20856613
-0.019278198 -0.029181082 -0.30592787
-0.0047144443 -0.029532483 -0.29866338
0.014795892 -0.025228314 -0.20813173
-0.044313416 0.002889873 -0.33035558
-0.044042394 -0.011361467 -0.33079785
-0.032233864 -0.012608349 -0.30891067
-0.019278362 0.025029285 -0.3064478
-0.030626625 0.022952009 -0.31487104
0.010765612 0.018409949 -0.20875473
0.042237878 0.015326967 -0.28704792
0.03868258 0.020653632 -0.30253786
0.043854102 0.018330643 -0.20719188
0.04421822 -0.021990413 -0.20772506
0.010489687 -0.022229724 -0.20912905
-0.03171511 0.011300405 -0.30860472
0.015137769 0.021239158 -0.20757666
0.046564825 0.014012059 -0.20812756
0.016179534 -0.028067712 -0.00034087803
0.020317445 -0.025074055 0.001619691
0.013591714 -0.016318515 0.047425009
-0.032984458 -0.019500032 -0.003343462
-0.029988158 -0.023526095 0.0081264675
-0.032403186 -0.018933989 0.038140126
-0.032270979 0.017131995 -0.0040081693
-0.033838812 0.013144624 0.0081188437
-0.031523366 0.016228726 0.039510306
0.01619738 0.024407512 -0.0017930591
0.0014978671 0.025256852 0.010112173
0.013235167 0.012977445 0.046774041
0.028068621 -0.0011459907 -0.0016784929
0.027503124 0.0044456194 0.0014878716
0.02441645 -0.0016959576 0.041575007
0.018076463 -0.0015742528 0.054251373
0.012471076 0.0050391527 0.05833669
0.0053604841 -0.001548385 0.062548116
0.022217628 0.0053538359 0.04612264
0.021820037 0.018542564 0.0045510177
0.019439865 0.022170458 0.003230135
0.01971497 0.0091807591 0.046460919
0.0039602388 0.0092507405 0.059843294
-0.011125477 0.0085060969 0.060585141
0.0012271404 0.0048371567 0.062937595
-0.015676003 0.018079901 0.04708308
-0.02438071 0.022930307 0.02040383
-0.029754572 0.020197377 0.0081243301
-0.026481502 0.01972666 0.041890994
-0.021121768 0.0078568552 0.057174407
-0.021177648 -0.0015067277 0.058097616
-0.011620503 0.003626066 0.062411379
-0.031802848 0.009599505 0.044121325
-0.034506239 -0.0010424347 0.020225994
-0.033960465 -0.016456032 0.0079857111
-0.032102183 -0.013195869 0.043412905
-0.02256451 -0.011269439 0.056181483
-0.0094376728 -0.011206864 0.061301641
-0.010901975 -0.0063297306 0.062692933
-0.02716898 -0.021885067 0.043290876
-0.024625216 -0.026324106 0.020308178
0.0011788826 -0.028737234 0.0087278774
-0.014681261 -0.020774741 0.04845845
0.0059286691 -0.011953014 0.059784733
0.012616249 -0.0081460029 0.05836881
0.0012252368 -0.0079393154 0.063035861
0.019302662 -0.013087645 0.046360455
0.022080198 -0.02199172 0.0030150274
0.027666554 -0.0077618747 0.00077467784
0.022442779 -0.0079400642 0.046300314
0.04776952 0.016201684 -0.15133423
0.036749557 0.021107385 -0.090116113
0.040373202 0.012812966 -0.10144295
0.046005551 0.020044727 -0.14699532
0.041870803 0.024490915 -0.14327106
0.029592754 0.028688597 -0.087537482
0.032382607 0.025114795 -0.083133176
0.01266982 0.027465725 -0.13354023
-0.008438265 0.028714471 -0.06603913
0.01966241 0.029942522 -0.078328118
0.0040165819 0.026185228 -0.12259009
-0.0022397563 0.024672037 -0.11076675
-0.021570131 0.02127724 -0.053465668
-0.018515382 0.024613824 -0.053238921
-0.0088413879 0.019799413 -0.098224387
-0.030849662 0.012256816 -0.030476162
-0.026535973 0.016951006 -0.043133691
-0.0095889941 -0.0018870191 -0.098927155
-0.0090830028 -0.02269214 -0.098023191
-0.026752338 -0.020309314 -0.042733144
-0.030898573 -0.012498407 -0.03092806
-0.0029771961 -0.027550844 -0.11088659
-0.018608017 -0.028231259 -0.053242303
-0.021822996 -0.024761125 -0.053205598
0.0047929995 -0.029993478 -0.12475114
0.012656398 -0.031216988 -0.13559726
0.020912014 -0.033715323 -0.077793889
-0.0086757299 -0.032372449 -0.065911047
0.042113107 -0.028423026 -0.14315686
0.033273268 -0.028013574 -0.083583146
0.030267082 -0.032206751 -0.087412082
0.046274334 -0.02368387 -0.14718483
0.047726564 -0.020091532 -0.15120742
0.039564736 -0.013532427 -0.097810864
0.036014214 -0.02453828 -0.087653153
0.036382724 0.026895469 -0.13911785
0.0389909 0.020314287 -0.21961309
0.032590032 0.024714544 -0.31453842
-0.005353719 0.025479415 -0.30062899
0.02137547 0.021141788 -0.21993013
-0.0063757822 0.021582084 -0.10430891
-0.020828262 0.019791041 -0.29936254
-0.039258063 0.019904997 -0.33191401
-0.043929726 0.0074949111 -0.33082986
-0.030375704 0.016454989 -0.30763304
-0.0061874241 -0.025405211 -0.10496332
-0.031652868 -0.02026587 -0.30885276
-0.039479285 -0.023810981 -0.33181846
-0.031348154 -0.02663995 -0.31507099
-0.02178295 -0.023062661 -0.29960269
0.035808221 -0.030998258 -0.1396444
0.021246977 -0.025241263 -0.22020563
0.032494545 -0.029115975 -0.31397024
0.038615316 -0.0251224 -0.30206525
0.039195254 -0.024403885 -0.22005191
0.048167601 -0.0018302046 -0.14873578
0.046748802 -0.013732431 -0.22222593
0.043982923 -0.0019720313 -0.30457467
0.043677822 0.01234345 -0.2948333
0.04675927 0.0100598 -0.22200277
0.028995559 0.009312409 -0.36936617
0.029232785 0.025179431 -0.35496056
0.040531546 0.019281331 -0.33640277
0.010527208 0.020880911 -0.37357479
-0.013119295 0.022325244 -0.37130481
-0.022521108 0.029936653 -0.34259245
0.0059169531 0.030686907 -0.35436445
-0.035198316 0.023798933 -0.34581536
-0.025092646 0.0089363465 -0.37196892
-0.033739462 0.0027223527 -0.3656562
-0.044853598 0.0027653233 -0.34182042
-0.043034002 0.0086410698 -0.34626043
-0.043246344 -0.012352748 -0.34629214
-0.02755779 -0.012673512 -0.37051889
-0.013092875 -0.025905654 -0.37198544
-0.022688225 -0.034237538 -0.3427282
-0.035730079 -0.026681449 -0.34831399
0.041598022 0.0084726522 -0.34316081
0.041304708 -0.011759285 -0.34487766
0.029423341 -0.013278001 -0.36922076
0.030537739 0.0025775321 -0.36959755
0.0064620376 -0.035113525 -0.35471421
0.010565937 -0.024754133 -0.3738724
0.029543221 -0.029296312 -0.3546083
-0.0035621747 0.0011849464 0.063852102
