# .PCD v0.7 - Point Cloud Data file format
VERSION 0.7
FIELDS x y z
SIZE 4 4 4
TYPE F F F
COUNT 1 1 1
WIDTH 162
HEIGHT 1
VIEWPOINT 0 0 0 1 0 0 0
POINTS 162
DATA ascii
0.0012084104 0.028874099 -0.056105997
0.0054950677 0.0092989709 -0.054437622
-0.0030036611 -0.00012488457 -0.053940251
0.093347348 -0.011216415 -0.047024012
0.089968443 -0.0052640955 -0.048077729
0.093639925 -0.0048928838 -0.048052307
-0.0049683675 0.027362119 -0.055770937
-0.0026176595 0.044557124 -0.056999326
0.0072144913 0.040932573 -0.056647077
0.094613239 -0.011285692 -0.046818405
-0.0054114321 -0.028856402 -0.046668772
0.0012178993 -0.028692771 -0.047035828
-0.0048057451 -0.030214507 -0.046246067
-0.040076315 0.024768164 -0.048254728
-0.03935425 0.023766631 -0.048372112
-0.042669706 0.024290487 -0.046887688
-0.0077687833 0.049801648 -0.056255661
-0.023944143 0.048885819 -0.052984409
-0.033010978 0.050326165 -0.050776556
0.093106247 0.010972127 -0.047140066
0.024696803 0.048932206 -0.052801747
0.041436139 0.04938861 -0.049018577
0.093248077 -0.017896688 -0.044852674
-0.012823993 -0.029654963 -0.044933606
-0.042758267 0.033255406 -0.047776062
-0.0071232039 0.051052857 -0.055987716
0.09437573 0.011044839 -0.046931431
0.042154204 -0.046847675 -0.0027327631
0.076374993 -0.048055734 0.0049320413
0.017846465 -0.041268017 0.032184094
-0.048444014 -0.03694883 -0.0019371154
-0.045137879 -0.041407116 0.0058211605
-0.047099292 -0.032686863 0.02489643
-0.056622811 0.049587693 -0.0013794319
-0.05649028 0.034894362 0.0026852663
-0.049126428 0.04772165 0.041538008
0.043470737 0.071699992 -0.0041931299
0.0055598551 0.070861675 0.016927464
0.031024475 0.067007564 0.044648044
0.10457364 -0.00029733282 -0.004095322
0.10451622 0.028572712 0.0081232488
0.10007522 0.00063313561 0.045372684
0.082302488 2.8764392e-05 0.04847635
0.038501311 0.033640727 0.04954249
0.021214364 0.0064691659 0.051340953
0.093102187 0.018279711 0.044907521
0.098245934 0.043752987 0.016127523
0.055132285 0.066256836 0.0061726524
0.04427417 0.050091453 0.047110904
0.011388678 0.049098168 0.055665914
-0.0083898399 0.044919889 0.056463782
0.0055838777 0.031810742 0.056076378
-0.0058643869 0.065294653 0.046426911
-0.036160473 0.071219139 0.01735751
-0.054203331 0.054590557 0.0044661621
-0.041758947 0.051991545 0.047991563
-0.040597625 0.040849261 0.049552195
-0.039506707 0.022711173 0.04802873
-0.013810239 0.026187066 0.054271996
-0.047643103 0.025103249 0.041699223
-0.054284174 0.014412081 0.0089098709
-0.051273793 -0.02526574 0.008415577
-0.046583459 -0.026084781 0.026029464
-0.023782991 -0.018160254 0.043205813
-0.0062926686 -0.028331321 0.046823397
-0.0096544391 0.0018973295 0.053246118
-0.035977121 -0.038296353 0.029776705
-0.029563282 -0.047288682 0.014813279
0.00090554828 -0.047691159 0.0081539629
-0.0033952198 -0.040803201 0.037126455
0.01023316 -0.029404595 0.045781169
0.04993264 -0.012809627 0.044942029
0.0061194939 -0.0078483783 0.053103823
0.074915096 -0.030097254 0.037749067
0.098306902 -0.043935522 0.015771056
0.10460915 -0.028767752 0.0081675202
0.09302482 -0.019110767 0.044533223
0.097830519 0.011166744 -0.045542303
0.10027766 0.027292462 -0.03587231
0.10221591 0.0094690677 -0.041804068
0.094711646 0.018670069 -0.044350013
0.042295821 0.051437702 -0.048043706
0.037836496 0.066691421 -0.040283125
0.093660139 0.036815092 -0.031331558
8.8687142e-05 0.053465292 -0.055236001
-0.012825036 0.069912747 -0.04082511
0.027528381 0.069215328 -0.042688869
-0.02630089 0.052499633 -0.051318891
-0.041932963 0.051301088 -0.048200548
-0.047959361 0.051403802 -0.042226989
-0.044547707 0.055528514 -0.041750319
-0.046568796 0.04107181 -0.045366149
-0.048772939 0.025344098 -0.038755268
-0.049221069 0.047465075 -0.041237209
-0.045723524 0.024989203 -0.044367451
-0.044136114 0.021254105 -0.044477671
-0.047906864 -0.031665727 -0.023942595
-0.049372979 -0.026444923 -0.021898828
-0.036571492 -0.037354521 -0.029862441
-0.036942892 -0.041185256 -0.026316501
-0.046046019 -0.034870144 -0.024607286
-0.015270983 -0.032933135 -0.04233573
2.2349335e-05 -0.033516739 -0.044643685
0.0085231718 -0.042378392 -0.03427149
-0.012194985 -0.042935375 -0.032094289
0.091613643 -0.024930732 -0.041437976
0.093744889 -0.036778778 -0.031264782
0.075720832 -0.038490057 -0.02914167
0.094989918 -0.018664807 -0.044279493
0.097094551 -0.011318869 -0.045902405
0.10205003 -0.010051096 -0.04214748
0.10034963 -0.02775383 -0.035433747
0.03090187 0.06479194 -0.045764387
0.028967354 0.050162066 -0.051660035
0.0079793166 0.049475174 -0.056302816
5.1307466e-05 0.04965223 -0.056830943
0.0074283127 0.050761826 -0.056050874
-0.043789573 0.048939202 -0.047689866
-0.040745292 0.0490961 -0.04932297
-0.040129714 0.048063282 -0.049599696
-0.040716007 0.040997911 -0.049454063
-0.041960541 0.045789823 -0.048936732
-0.044058211 -0.032249607 -0.027622432
-0.040363796 0.022461826 -0.047569264
-0.015601789 0.0043954309 -0.051871777
-0.01232915 -0.02807069 -0.045534492
-0.018624397 -0.028398961 -0.043222398
0.01306137 -0.033262584 -0.042855434
0.0022473671 -0.029900432 -0.046581738
0.0098902006 -0.011101974 -0.051834084
0.077175282 -0.011463655 -0.047010548
0.076309867 -0.019732576 -0.044169735
0.097204566 -0.00012340985 -0.047178853
0.094958343 -0.0045974362 -0.04783003
0.093979314 -0.00012973425 -0.048249409
0.093617208 0.0046923924 -0.048088085
0.094936073 0.0043996791 -0.047865584
0.008157176 0.041380633 -0.05655425
0.0081833042 0.048310563 -0.056404009
0.027660854 0.041948304 -0.052429643
0.0042659743 0.044377446 -0.056920521
-0.0029844311 0.045318954 -0.056985907
-0.0071855355 0.048749954 -0.056489959
0.00034491566 0.048653033 -0.056966297
-0.0081538921 0.048070773 -0.056395311
-0.0077742208 0.041169748 -0.056572203
-0.010671946 0.025751134 -0.054856196
-0.038545892 0.024922136 -0.048777167
-0.029104745 0.041092649 -0.052019641
-0.012134304 0.0040678475 -0.052884132
-0.0076410654 0.0022611159 -0.053599615
0.00028633399 -0.0039055259 -0.053684369
-0.00012711791 -0.0048143007 -0.053465128
-0.0058928509 -0.00032810727 -0.053533643
0.092668116 0.0041150507 -0.048197776
0.092707351 -0.0020971415 -0.048272863
0.010793195 -0.0040813279 -0.052694969
0.0094649112 0.025835004 -0.05509096
0.0045996471 -0.0073102643 -0.053190324
0.0049315756 -0.0062648291 -0.053355411
0.01012628 -0.0098119518 -0.052121092
0.00015593712 0.0078153955 0.054697488
