# .PCD v0.7 - Point Cloud Data file format
VERSION 0.7
FIELDS x y z
SIZE 4 4 4
TYPE F F F
COUNT 1 1 1
WIDTH 162
HEIGHT 1
VIEWPOINT 0 0 0 1 0 0 0
POINTS 162
DATA ascii
0.021129102 -0.016152022 -0.35392892
0.025334343 -0.019248918 -0.35411161
0.015262678 -0.026433414 -0.35266793
0.054647096 -0.03168859 -0.30588177
0.054947361 -0.031724602 -0.33375096
0.057610437 -0.027202874 -0.31103572
0.0098658949 -0.016071368 -0.3505519
0.014310598 0.028536426 -0.35252056
0.028763592 0.020329293 -0.35400265
0.040205821 -0.023916695 -0.22912252
-0.019596949 -0.038729273 -0.2826786
0.0034143776 -0.044836923 -0.29595587
-0.010916792 -0.040933445 -0.2121878
-0.047164582 -0.00090887817 -0.25577202
-0.046609655 -0.006400628 -0.25497118
-0.051160365 -0.0099777915 -0.20785646
-0.019848764 0.054119706 -0.28155398
-0.029097125 0.044853602 -0.28737575
-0.030913681 0.051850416 -0.20986621
0.055463947 0.045572773 -0.30788895
0.052139565 0.050622314 -0.30708674
0.039403267 0.048331484 -0.20971113
0.037794866 -0.028500736 -0.22682436
-0.026672035 -0.036011565 -0.21297987
-0.049945176 0.0035901666 -0.2077589
-0.012140922 0.05971048 -0.21130654
0.040420473 0.044287208 -0.20847726
0.033724848 -0.082092479 -0.0036462666
0.040195961 -0.072894812 0.0036627781
0.019788586 -0.073121421 0.035159167
-0.05237161 -0.030475318 -0.0024285726
-0.04019811 -0.072692931 0.0037254598
-0.057664059 -0.020542419 0.046279144
-0.049269132 0.044799414 -0.0052811466
-0.055620566 0.016483549 -0.00079194829
-0.058284894 0.024445591 0.046157256
0.028965726 0.061510924 -0.0055923248
0.0018425125 0.065859318 0.0058682361
0.025090154 0.055829745 0.049922481
0.06006673 -0.00011622917 -0.0041115731
0.059940342 0.02812765 0.0085259322
0.059036598 -0.00012001867 0.033300038
0.04459225 -0.0018517417 0.071768828
0.033545271 0.016364526 0.075071402
0.024541866 -0.0052616009 0.080194086
0.049134042 0.022820979 0.059546467
0.058547024 0.039171342 0.020226622
0.050357025 0.047977321 0.0082504731
0.04549285 0.037496932 0.055431139
0.016349517 0.035973538 0.07419835
-0.011908701 0.029887248 0.077659249
0.0081037618 0.018115776 0.080932155
-0.0062383451 0.055455677 0.058881432
-0.02854554 0.059688143 0.017682623
-0.046831638 0.048666678 0.0066730566
-0.037634898 0.045022503 0.055775441
-0.037716925 0.01977602 0.072139688
-0.041948833 -0.0042128027 0.073472135
-0.018198917 0.011355004 0.080547586
-0.059313063 0.017821165 0.048038308
-0.0608081 5.6160337e-05 0.038657192
-0.054594025 -0.019955724 0.011869406
-0.059056967 -0.014944584 0.048296012
-0.035591692 -0.015592748 0.07595665
-0.012270693 -0.02043765 0.081782863
-0.018749321 -0.015002161 0.082221776
-0.034063369 -0.029288396 0.061521221
-0.031645104 -0.080996238 0.015918234
0.0010861424 -0.083719745 0.0081292298
-0.0054143146 -0.072430588 0.04002063
0.016286027 -0.021558907 0.079958275
0.031940877 -0.015391291 0.077976942
0.0085733123 -0.016774502 0.083636098
0.040623002 -0.026766825 0.060504816
0.058998358 -0.032310154 0.020384347
0.060101889 -0.027884681 0.008152958
0.057330277 -0.022726018 0.035733245
0.044389229 0.043757267 -0.13795567
0.05908411 0.036457516 -0.040117994
0.058356978 0.006547112 -0.05104892
0.044096664 0.046748124 -0.13931064
0.041808102 0.0517308 -0.14041293
0.039792731 0.056514259 -0.071868651
0.047665279 0.049412429 -0.059356064
0.00045573711 0.064220458 -0.14129853
-0.012703734 0.066998616 -0.060051687
0.014445025 0.066173002 -0.072142124
-0.027386956 0.058709573 -0.14125127
-0.040387504 0.048763327 -0.13897386
-0.047135457 0.046784893 -0.069840647
-0.039314523 0.056839995 -0.059850976
-0.052131049 0.016839981 -0.13763651
-0.058441598 0.0093193259 -0.049764458
-0.049576648 0.040145997 -0.072734259
-0.055324741 -0.0081556821 -0.13831694
-0.055041973 -0.011490898 -0.13850477
-0.054437593 -0.019649373 -0.050997853
-0.058393825 -0.0055584284 -0.049734462
-0.028958604 -0.03488015 -0.14305526
-0.029373018 -0.075013444 -0.026920447
-0.046814941 -0.032981966 -0.051453289
-0.020001587 -0.039845854 -0.142664
-0.00054997206 -0.043604802 -0.1420455
0.011928603 -0.077634506 -0.0365481
-0.01230533 -0.078722768 -0.035669677
0.029786985 -0.035044596 -0.1434862
0.056764256 -0.032822035 -0.038108028
0.02668355 -0.074865222 -0.0295325
0.036514912 -0.024383333 -0.14065424
0.041755814 -0.0095669627 -0.13822293
0.057815101 -0.0068714181 -0.050824381
0.059286766 -0.028517824 -0.037769806
0.027273837 0.059856378 -0.14171141
0.035295382 0.052440196 -0.22364634
0.036255717 0.058072899 -0.31078041
0.0007468164 0.058132395 -0.2954374
0.017522693 0.059293915 -0.22446832
-0.046906393 0.035898816 -0.13823391
-0.038324721 0.040875543 -0.22080979
-0.033461183 0.037977867 -0.2832053
-0.041886374 0.020651648 -0.26726764
-0.045145772 0.023200797 -0.22018071
-0.053322483 -0.01493649 -0.14021453
-0.049593583 -0.013015533 -0.22095856
-0.029293999 -0.030617494 -0.28773019
-0.02745688 -0.03411793 -0.2867336
-0.046852529 -0.016867209 -0.22274163
0.019369159 -0.040386613 -0.1430095
0.011889867 -0.040744971 -0.22456807
0.036672518 -0.045363173 -0.3105787
0.051366806 -0.035772212 -0.30688089
0.030912571 -0.035480905 -0.22421947
0.042953912 0.0026297327 -0.13796623
0.04063464 -0.020601513 -0.23029712
0.058826476 -0.015530454 -0.31612772
0.057644345 0.027552327 -0.31119564
0.040488943 0.020584863 -0.23030773
0.039268136 0.032375392 -0.35097539
0.043612763 0.049667038 -0.34487617
0.056356296 0.043164238 -0.33213866
0.021913245 0.04285641 -0.35365742
0.0083033592 0.044524804 -0.34901547
-0.0052467734 0.049684521 -0.3297472
0.012574136 0.052736551 -0.34511435
-0.010023266 0.043997929 -0.32625872
0.0018384159 0.031533413 -0.34505367
0.00059704483 -0.016193744 -0.34376657
-0.031569287 -0.0015629642 -0.28987849
-0.017802194 0.025154719 -0.31406596
-0.017668411 -0.024990363 -0.31385198
0.0026057512 -0.02644561 -0.34560275
0.0080554485 -0.031203587 -0.34849352
-0.0043878555 -0.035298705 -0.32922339
-0.0097612143 -0.031246066 -0.32583985
0.056031227 0.02011648 -0.33442521
0.054791957 -0.017555565 -0.33609834
0.039052919 -0.028638495 -0.35070872
0.038912371 -0.015299911 -0.35070613
0.01807569 -0.043580528 -0.33843899
0.024840221 -0.030547552 -0.35340381
0.043490425 -0.03608074 -0.34274185
0.00042152405 -0.0058448939 0.083628833
