# .PCD v0.7 - Point Cloud Data file format
VERSION 0.7
FIELDS x y z
SIZE 4 4 4
TYPE F F F
COUNT 1 1 1
WIDTH 162
HEIGHT 1
VIEWPOINT 0 0 0 1 0 0 0
POINTS 162
DATA ascii
-0.0011486281 -0.029605366 -0.056129761
0.0072237947 -0.040969718 -0.056661524
-0.0031053449 -0.044219013 -0.056915056
0.093319729 -0.0078399125 -0.047710896
0.026580516 -0.04535757 -0.052581538
0.093674615 -0.0066148634 -0.047868319
-0.0052454001 -0.026499152 -0.055666965
-0.00076591229 0.0017904679 -0.05392132
0.0050655939 -0.0091286348 -0.054459434
0.094552428 -0.010284185 -0.046976008
-0.0081476029 -0.049840145 -0.056165066
-0.00010222693 -0.049691685 -0.0567891
-0.0074958573 -0.051090162 -0.055897299
-0.040804084 -0.025620818 -0.048142754
-0.040438432 -0.041032501 -0.049554259
-0.042296626 -0.032187339 -0.047937639
-0.0059693702 0.028830763 -0.046614017
-0.010740203 0.027969476 -0.045950025
-0.015993327 0.029585542 -0.043913901
0.093346842 0.010900324 -0.047101304
0.077684298 0.01315317 -0.046545468
0.093009889 0.017532246 -0.045049615
0.0407077 -0.04942045 -0.049284592
-0.032761939 -0.050360762 -0.050784498
-0.042062461 -0.0245065 -0.047297932
-0.0053560263 0.030188704 -0.046190601
0.094612785 0.010974376 -0.046894468
0.043198749 -0.07161025 -0.0040939064
0.055416111 -0.066107571 0.0064758901
0.031013846 -0.066993348 0.044690773
-0.056833435 -0.049595349 -0.0033751074
-0.053825054 -0.054574847 0.0070526451
-0.049120031 -0.047773156 0.041540321
-0.048311587 0.036980834 -0.0011390557
-0.051298678 0.025342645 0.0087153958
-0.046975464 0.032698043 0.025003718
0.042327363 0.046890512 -0.0014324121
0.00066998467 0.047701761 0.0081557939
0.01746018 0.041491274 0.032142967
0.1045822 -2.0813179e-05 -0.004095424
0.10463954 0.028682988 0.0081898645
0.10023653 -0.00041547217 0.045161206
0.082306169 -7.8666118e-05 0.048476312
0.049281649 0.012565867 0.044974949
0.021174187 -0.0066405521 0.051394176
0.093143001 0.018159153 0.044910342
0.098447777 0.043690287 0.015874643
0.076492295 0.048115965 0.0046167783
0.074872606 0.031021163 0.037004232
0.0090609659 0.029492155 0.04610078
-0.0066738613 0.028363757 0.046754017
0.0062114424 0.0078863259 0.053117372
-0.0030290007 0.041055374 0.03684777
-0.029445034 0.04730764 0.014977172
-0.045246512 0.041377064 0.0044107158
-0.035742451 0.038278002 0.029855225
-0.022710629 0.01819781 0.043674357
-0.039496049 -0.02297413 0.048188336
-0.0095989928 -0.0017745113 0.053296663
-0.046605617 0.02609979 0.026000157
-0.054120481 -0.013902881 0.0090943119
-0.056357633 -0.034926269 0.0041000871
-0.047380406 -0.025416272 0.042275034
-0.040857989 -0.040817756 0.049458005
-0.0082190856 -0.04500204 0.056508426
-0.012460265 -0.024428532 0.054407075
-0.041796345 -0.051970031 0.048034482
-0.03605384 -0.071200609 0.017439941
0.00027462121 -0.070820734 0.018201683
-0.0058650589 -0.065274872 0.04647626
0.011135277 -0.049063299 0.055783749
0.0384802 -0.033769552 0.049629837
0.0059284647 -0.031916779 0.056087498
0.044569779 -0.050071612 0.047029965
0.098414212 -0.043817725 0.015655873
0.10448722 -0.028570337 0.0081581622
0.093095995 -0.018087119 0.044990599
0.09709397 0.011016304 -0.045975834
0.10055799 0.027320208 -0.035461452
0.10171681 0.010054111 -0.042306609
0.094763078 0.018616857 -0.044323854
0.09184166 0.025959807 -0.040794753
0.075713456 0.038958739 -0.028516885
0.093751647 0.036721509 -0.031308882
-0.0019366915 0.033835337 -0.044254526
-0.01246002 0.042796511 -0.032202959
0.0088491468 0.042422704 -0.033991281
-0.012488884 0.033088174 -0.043125547
-0.036914039 0.037123814 -0.029784035
-0.045718949 0.035083495 -0.02478468
-0.036581244 0.041274998 -0.026475869
-0.044199556 -0.021307155 -0.044458721
-0.049284566 0.02643011 -0.022076407
-0.048144657 0.031457111 -0.023718778
-0.045596786 -0.024767516 -0.044460274
-0.046204619 -0.041103058 -0.045766816
-0.049217753 -0.047509421 -0.041257352
-0.04880663 -0.025475888 -0.038693562
-0.041890398 -0.051332489 -0.048155002
-0.044553336 -0.055560011 -0.041754365
-0.047964558 -0.051433675 -0.042230032
-0.026153341 -0.052533954 -0.051316272
-5.757566e-05 -0.053502567 -0.05519658
0.02753455 -0.069243334 -0.042653795
-0.013713232 -0.069941193 -0.040525526
0.04158463 -0.051466137 -0.048296522
0.093653351 -0.036862273 -0.031300228
0.037410881 -0.066663183 -0.040615749
0.094764508 -0.020085355 -0.043769613
0.096998006 -0.012840808 -0.045499139
0.10206991 -0.0093187457 -0.042238425
0.10062656 -0.026853709 -0.035841428
0.013955893 0.033053339 -0.04277705
0.076069191 0.018411035 -0.044673212
0.009256334 0.010943406 -0.051959597
-0.00073540315 0.02863621 -0.047057688
0.0054690731 0.029928321 -0.046367295
-0.04422573 0.032016262 -0.027594004
-0.017285062 0.028391745 -0.043808721
-0.015435727 -0.0044541657 -0.051947087
-0.04008108 -0.024621177 -0.048255052
-0.040426709 -0.022034023 -0.047317505
-0.043745603 -0.048971519 -0.047643617
-0.04179728 -0.044914063 -0.048965789
-0.040086254 -0.048097439 -0.049553178
-0.023586726 -0.048923157 -0.053028602
-0.040702142 -0.049129449 -0.049276538
0.030925529 -0.064819217 -0.045698527
0.0070463815 -0.050800186 -0.056060176
0.0075909132 -0.049514081 -0.056311406
0.02613708 -0.048971944 -0.052523255
0.030002706 -0.050200257 -0.051493552
0.09720403 -0.00019085202 -0.047179006
0.094990477 -0.0054331087 -0.047706045
0.093978763 -0.00020063267 -0.048249591
0.093630724 0.004621536 -0.048083708
0.09494938 0.0043298034 -0.047861345
0.0066517121 0.0056073326 -0.053196799
0.0094892951 0.0096526621 -0.052247528
0.088827476 0.0054739499 -0.048054207
0.0048146672 0.0060926159 -0.053385161
-0.0011253646 0.0026003486 -0.053812601
-0.0015315416 0.003515281 -0.053590819
0.0044831904 0.007138649 -0.05321952
-0.006732 -0.00054418825 -0.053588312
-0.0061644358 -0.0015348492 -0.053817157
-0.011434056 -0.025745004 -0.054670233
-0.039276697 -0.025780486 -0.048660822
-0.013613654 -0.0050309948 -0.052603777
-0.029627955 -0.041128099 -0.051932
-0.0077593098 -0.04121042 -0.056563228
-0.0043598637 -0.044699758 -0.056867369
-0.0075674178 -0.048788782 -0.056397825
-0.0085364711 -0.048109822 -0.05630425
0.092681773 0.0040436932 -0.048193522
0.092717186 -0.00075353053 -0.048343971
0.0081665115 -0.041417737 -0.05656876
0.0096128518 -0.026196759 -0.05504714
0.00019013506 -0.048692927 -0.056924067
0.0028998198 -0.045067139 -0.056959443
0.0077925255 -0.048349846 -0.056412451
-0.00043429303 -0.0080248406 0.054720458
