# .PCD v0.7 - Point Cloud Data file format
VERSION 0.7
FIELDS x y z
SIZE 4 4 4
TYPE F F F
COUNT 1 1 1
WIDTH 162
HEIGHT 1
VIEWPOINT 0 0 0 1 0 0 0
POINTS 162
DATA ascii
0.021248996 0.015928162 -0.35384399
0.025277361 -0.020565471 -0.35406223
0.013214096 -0.031755887 -0.3518545
0.055627808 -0.045794379 -0.30775821
0.056414321 -0.043529049 -0.33210215
0.057779089 -0.027734771 -0.31094858
0.0096928328 0.015854649 -0.35035264
0.014751256 0.026280196 -0.35240817
0.026263013 0.01745221 -0.35393661
0.040457025 -0.044595405 -0.20852573
-0.019761473 -0.054434411 -0.28012583
0.00029858947 -0.058351509 -0.29556796
-0.011934176 -0.05984607 -0.21127233
-0.047162637 0.0012860172 -0.25526369
-0.041788854 -0.02136807 -0.26696807
-0.049842343 -0.0043529742 -0.20760691
-0.019407988 0.038583659 -0.28300065
-0.027504742 0.033867724 -0.28523371
-0.026568614 0.035871375 -0.2129195
0.055381916 0.031526182 -0.30710098
0.052046068 0.035600647 -0.30805117
0.037632465 0.028539488 -0.22675651
0.039526202 -0.048295256 -0.20975757
-0.030287258 -0.052452005 -0.2098846
-0.051106378 0.0098180473 -0.20774695
-0.010825954 0.040794387 -0.21212894
0.039947577 0.024345327 -0.22792944
0.029126281 -0.061442804 -0.005519012
0.050581321 -0.047700137 0.0082357656
0.025303468 -0.056325227 0.048544154
-0.049299598 -0.044755656 -0.0048615094
-0.046893209 -0.048882663 0.0069929138
-0.058422849 -0.024407575 0.0461572
-0.052480999 0.030413508 -0.0025349986
-0.05461023 0.020327328 0.011934448
-0.057968594 0.02061064 0.046097685
0.033912431 0.082146324 -0.0030986499
0.0010828401 0.083708487 0.008126135
0.019668814 0.073122151 0.035241343
0.06000736 0.0001602636 -0.0041637123
0.060049042 0.027860703 0.0081128329
0.058912825 0.00026016889 0.03338543
0.044879798 7.4846852e-05 0.071471289
0.032074302 0.015376677 0.077979557
0.025532534 0.0053377612 0.080060616
0.05727293 0.022699963 0.035809461
0.05893863 0.032291971 0.020376153
0.040146906 0.072908975 0.0038808603
0.04028083 0.027186001 0.060640842
0.014805645 0.021352028 0.080560848
-0.011979397 0.020528508 0.081780419
0.0079552084 0.016869327 0.083753571
-0.0052073319 0.072456583 0.04005152
-0.032216169 0.080931276 0.015498282
-0.040225379 0.07271532 0.0036179367
-0.034454014 0.029194415 0.061186351
-0.036931686 0.014669703 0.075416356
-0.04201797 0.003689938 0.073475324
-0.019336607 0.014789683 0.082117818
-0.059363652 0.014990844 0.048116729
-0.06077373 -6.5504995e-05 0.038028043
-0.055694826 -0.016436253 -0.00074352324
-0.059466094 -0.017757829 0.048039429
-0.038293973 -0.021760585 0.071313486
-0.013266809 -0.02996181 0.077265449
-0.017850166 -0.010903753 0.080672622
-0.038897209 -0.043685559 0.0563506
-0.028630968 -0.059709772 0.017515346
0.00061179651 -0.065918043 0.0057902769
-0.0059043653 -0.05532521 0.05887711
0.016270936 -0.035939187 0.074295297
0.03323387 -0.018971566 0.074700765
0.0065625571 -0.01851817 0.081069157
0.045399062 -0.03809046 0.054680321
0.058969073 -0.038044754 0.020521123
0.05985947 -0.028366974 0.0079811532
0.048988927 -0.02225286 0.060392477
0.0417202 0.010112266 -0.13844761
0.059259493 0.028536245 -0.03769204
0.057737611 0.0066794441 -0.051043268
0.036144651 0.025242696 -0.14086854
0.029810611 0.034944322 -0.14361086
0.02642121 0.074848697 -0.029726164
0.056733698 0.032692246 -0.038134098
-0.0004568398 0.043515287 -0.14197977
-0.013098706 0.079692997 -0.034483276
0.0097246058 0.077868223 -0.037040029
-0.020195507 0.039676726 -0.14262098
-0.028956063 0.034775496 -0.14285065
-0.046866618 0.032954209 -0.051289592
-0.029301666 0.075004615 -0.027002553
-0.05498765 0.011086087 -0.13841459
-0.058383882 0.0053927577 -0.049977615
-0.054491777 0.01959569 -0.050837308
-0.055283446 0.0077559114 -0.1382346
-0.052345 -0.016058393 -0.13782179
-0.049597368 -0.040143903 -0.072898902
-0.058484212 -0.0093858857 -0.049591251
-0.039590411 -0.050005242 -0.13932362
-0.039365686 -0.056802772 -0.059475452
-0.047289319 -0.046692215 -0.070150323
-0.027008656 -0.058886267 -0.14124924
0.00068339705 -0.064317979 -0.14133424
0.014862226 -0.066208459 -0.072067738
-0.013083683 -0.066816509 -0.060189165
0.04176943 -0.051782794 -0.14063412
0.047763254 -0.049309611 -0.059266269
0.039381117 -0.056781065 -0.072460413
0.044107273 -0.047244981 -0.13930885
0.04437631 -0.044268761 -0.13804893
0.058353268 -0.0065280963 -0.050804567
0.059384175 -0.034671646 -0.039999217
0.021706827 0.039563991 -0.14285651
0.030990362 0.035324343 -0.2241254
0.036943465 0.045138221 -0.3104468
0.0034911186 0.044623174 -0.29579288
0.011893727 0.04058972 -0.22453797
-0.053029537 0.015307382 -0.1397116
-0.046822079 0.016581383 -0.22262828
-0.029339001 0.030377772 -0.28617871
-0.046275698 0.0059747631 -0.25549188
-0.049503922 0.012935334 -0.22104788
-0.046755843 -0.036663916 -0.13818792
-0.045328587 -0.022299789 -0.22017352
-0.033805609 -0.036749221 -0.28321475
-0.029074267 -0.045009166 -0.28704798
-0.038393326 -0.040722053 -0.22079709
0.028706525 -0.059431802 -0.14195992
0.016672976 -0.059665147 -0.22472931
0.036906108 -0.058250733 -0.31050438
0.051910944 -0.05109169 -0.30676895
0.03532473 -0.052679151 -0.22369118
0.043011028 -0.0018420274 -0.1379782
0.040577762 -0.020491552 -0.23023424
0.058985606 0.015310852 -0.31604093
0.057830445 0.02714411 -0.31141442
0.040753722 0.020723883 -0.23038019
0.039636612 0.028621843 -0.35035703
0.043007642 0.035833012 -0.34300345
0.055951461 0.031507779 -0.33139199
0.023708612 0.030279143 -0.35330003
0.0084542781 0.030983947 -0.34854668
-0.0041709542 0.035128657 -0.32909912
0.01861538 0.043353226 -0.33863768
-0.0095251054 0.031092815 -0.32571715
0.0030946583 0.024912504 -0.34564131
-0.0018467754 0.015940327 -0.34082231
-0.031411335 0.00064740132 -0.28979301
-0.017664954 0.025709754 -0.3137559
-0.017775506 -0.027353106 -0.31384531
0.0019006878 -0.031803608 -0.34493482
0.0082332194 -0.044351544 -0.34887633
-0.0049363822 -0.05009095 -0.32974538
-0.0098426044 -0.044290747 -0.32634884
0.056177601 0.017468622 -0.33435938
0.054445177 -0.020279845 -0.33764699
0.038991794 -0.033269051 -0.35104299
0.040003777 0.015073038 -0.35021812
0.014406919 -0.05301439 -0.34573376
0.022057667 -0.042901903 -0.3535547
0.04344137 -0.050562654 -0.34435278
0.00081263855 0.0067427857 0.083722651
